ply
format ascii 1.0
comment PCL generated
element vertex 1332
property float x
property float y
property float z
element camera 0
property float view_px
property float view_py
property float view_pz
property float x_axisx
property float x_axisy
property float x_axisz
property float y_axisx
property float y_axisy
property float y_axisz
property float z_axisx
property float z_axisy
property float z_axisz
property float focal
property float scalex
property float scaley
property float centerx
property float centery
property int viewportx
property int viewporty
property float k1
property float k2
end_header
-0.44194484 0.13404138 0.97854847
-0.45125562 0.13465536 0.9809134
-0.4548023 0.1335571 0.97057843
-0.46624717 0.13477629 0.97731042
-0.47352761 0.13477272 0.97497571
-0.47267586 0.22535838 0.98029882
-0.43697333 0.21495037 0.97650504
-0.45565686 0.21690239 0.98110354
-0.46154785 0.20888105 0.97673821
-0.46191445 0.19436669 0.97951341
-0.47008735 0.19471161 0.97898132
-0.42839715 0.18522926 0.97957093
-0.43568817 0.18523839 0.9775061
-0.45188677 0.18592082 0.97680348
-0.47026378 0.18742879 0.98029643
-0.46100983 0.17933452 0.97940159
-0.46959123 0.17981534 0.97977626
-0.68179077 0.5577631 0.92428368
-0.68770486 0.53383553 0.90925223
-0.53348821 0.32407522 0.98008507
-0.54135281 0.31658417 0.97943032
-0.55027783 0.31732973 0.97903252
-0.53231525 0.30813849 0.98105985
-0.55014092 0.30960247 0.98035723
-0.55672628 0.30901247 0.97568578
-0.53035092 0.29941735 0.97890037
-0.53968799 0.30039313 0.97945774
-0.546727 0.30008042 0.97570163
-0.56632221 0.29476643 0.97934425
-0.57495803 0.27992088 0.98105544
-0.58239698 0.42129838 0.98024327
-0.58000982 0.41172621 0.97825694
-0.59923124 0.41416645 0.97818547
-0.61658221 0.41522181 0.97458029
-0.58958203 0.40506718 0.98028558
-0.62575787 0.40813398 0.97552633
-0.58810526 0.39620385 0.97980785
-0.59771943 0.39737758 0.97976398
-0.60736454 0.39854106 0.97963631
-0.59670299 0.38884321 0.98005092
-0.60387206 0.38839975 0.97589213
-0.5961628 0.3806397 0.98108757
-0.52965188 0.37251598 0.97942144
-0.56416458 0.3750267 0.9750914
-0.52913123 0.36447343 0.9802928
-0.54298007 0.33284611 0.97915864
-0.54679954 0.33052751 0.96950489
-0.5456028 0.42505997 0.97988182
-0.55237073 0.42426562 0.97525954
-0.5651083 0.42801476 0.98118663
-0.57328224 0.42825198 0.97886997
-0.56038225 0.39327261 0.98108846
-0.48131672 0.24076957 0.97821164
-0.50877184 0.24326381 0.98109323
-0.52409762 0.22843553 0.97895801
-0.46528533 0.24014729 0.98032272
-0.46467274 0.23244713 0.98017848
-0.42988268 0.32265323 0.97971642
-0.44569185 0.30848157 0.98066908
-0.42799988 0.29907539 0.97996229
-0.48571911 0.3683351 0.98090833
-0.52117079 0.37194705 0.98053795
-0.483475 0.3515082 0.97989655
-0.5005663 0.3453019 0.98063672
-0.51859653 0.42212972 0.9810257
-0.51547748 0.3964856 0.9811852
-0.48626539 0.38396183 0.9782601
-0.44202977 0.36364508 0.97972602
-0.44849315 0.34035495 0.98046559
-0.54222816 0.47575745 0.97715867
-0.56138122 0.47075924 0.98005623
-0.53345263 0.45257959 0.96573454
-0.55005324 0.45999023 0.97904783
-0.55733174 0.45950601 0.97521168
-0.56876266 0.45450413 0.98093891
-0.49676594 0.46218738 0.98040688
-0.52205426 0.44834426 0.98107767
-0.44576773 0.47308478 0.98019177
-0.45217863 0.52672213 0.97931963
-0.45769095 0.52409619 0.97207469
-0.47298869 0.50054669 0.97463578
-0.27891454 -0.12738316 0.85941947
-0.27972999 -0.13398151 0.86135554
-0.28324702 -0.1419702 0.87171876
-0.28315052 -0.14822388 0.87072617
-0.2851533 -0.15561891 0.87626767
-0.28654978 -0.16275872 0.87987357
-0.28643981 -0.16907151 0.87873828
-0.27877522 -0.11491022 0.8601318
-0.27869651 -0.12108067 0.85932505
-0.27283129 -0.07602597 0.84413946
-0.26976418 -0.081175402 0.83410752
-0.27332398 -0.088329911 0.84491438
-0.27416664 -0.094704323 0.8471334
-0.2734988 -0.10056085 0.84457088
-0.27553749 -0.10744303 0.85048693
-0.27009174 -0.027171465 0.83744061
-0.26856264 -0.032994993 0.83247107
-0.27065057 -0.039275333 0.83889198
-0.27152726 -0.045445889 0.84145921
-0.27058965 -0.051311437 0.83827287
-0.27236286 -0.057709623 0.84360933
-0.27021104 -0.06326773 0.83653849
-0.27257872 -0.069888853 0.84368813
-0.27341202 0.027262112 0.84792989
-0.27373016 0.021201465 0.84904861
-0.27313876 0.015076451 0.84726614
-0.27073231 0.0089179762 0.83972198
-0.27043447 0.0028891466 0.83880895
-0.26982659 -0.0091283238 0.83685946
-0.268913 -0.01508257 0.8339169
-0.26950443 -0.021114063 0.83569968
-0.33456194 0.21729061 0.97745091
-0.36474851 0.21829051 0.97525209
-0.35058647 0.20406099 0.98120642
-0.35749322 0.20391361 0.97878003
-0.33217102 0.19450377 0.97331214
-0.34061065 0.19528443 0.97566229
-0.34910029 0.19606122 0.97794288
-0.34138477 0.18860568 0.97883755
-0.34923822 0.18900119 0.97926182
-0.33180305 0.18014793 0.97401112
-0.34023589 0.18087234 0.97637647
-0.2804203 0.071649805 0.86841601
-0.27654582 0.06450481 0.85652339
-0.2762855 0.058294848 0.85599214
-0.2763226 0.0521526 0.85636938
-0.27635562 0.046008028 0.85670489
-0.27457407 0.039600287 0.85128385
-0.27399522 0.033418529 0.84962833
-0.28613755 0.13650356 0.92668712
-0.29886478 0.12957682 0.92265046
-0.28259969 0.22279584 0.97951883
-0.31307289 0.22434634 0.98073149
-0.32058996 0.22461991 0.98042524
-0.29709196 0.21596386 0.9789319
-0.30370039 0.21562517 0.97593892
-0.32673714 0.21682884 0.97692907
-0.28205287 0.20823736 0.97964197
-0.29694313 0.20877376 0.97944629
-0.32688093 0.20980732 0.97839016
-0.28083682 0.20030639 0.97631979
-0.28934148 0.20133021 0.98003143
-0.30396464 0.20165184 0.97879469
-0.31143293 0.20190325 0.97856468
-0.31861383 0.20196132 0.9773441
-0.3264071 0.20239659 0.97793734
-0.30380318 0.19446801 0.97921038
-0.32378185 0.19371928 0.97089309
-0.28133407 0.18656966 0.97991097
-0.29394338 0.18563369 0.97219634
-0.31168559 0.18787697 0.98123193
-0.3182714 0.18757683 0.97813821
-0.27983624 0.1785682 0.97547346
-0.28694612 0.17863151 0.97448325
-0.29630354 0.1800576 0.9809978
-0.30346668 0.18011488 0.97989023
-0.30945429 0.17948775 0.97496921
-0.32464811 0.1801009 0.97532254
-0.24624377 0.12954207 0.8835237
-0.2551021 0.13084126 0.89135486
-0.26490492 0.13254957 0.90196151
-0.27514783 0.13439134 0.91342545
-0.20719494 -0.12847942 0.76018518
-0.080898754 -0.073738202 0.72353649
-0.085954808 -0.073719047 0.72296733
-0.080229908 -0.078164965 0.71708512
-0.085474268 -0.078355603 0.7184962
-0.096288987 -0.078943722 0.72317785
-0.08075083 -0.083741583 0.72147357
-0.086487763 -0.084393241 0.72682744
-0.081811316 -0.089977026 0.73075479
-0.086119652 -0.089120843 0.72327578
-0.080814444 -0.093953751 0.72124833
-0.086555034 -0.09468393 0.72659206
-0.091520779 -0.094532318 0.72499961
-0.081898987 -0.11577934 0.72921509
-0.081869557 -0.12087706 0.72840786
-0.10122044 -0.072292656 0.76170826
-0.09368708 -0.075869277 0.74409169
-0.099783607 -0.076537654 0.75034231
-0.093543097 -0.080969796 0.74256939
-0.09303242 -0.085716411 0.73805451
-0.097549982 -0.085130759 0.73247552
-0.092885785 -0.090761773 0.73646671
-0.098808818 -0.09144903 0.74172282
-0.098652437 -0.096515737 0.74009746
-0.082737036 -0.10138271 0.73832488
-0.088252872 -0.10175404 0.74069625
-0.093683474 -0.10199114 0.74204385
-0.099008329 -0.10209414 0.74236989
-0.087995432 -0.10665481 0.73801732
-0.09304598 -0.10648651 0.73641646
-0.09897735 -0.10729078 0.74165559
-0.087851651 -0.11166964 0.73628938
-0.093501776 -0.11222296 0.73959959
-0.099458203 -0.11306605 0.74482965
-0.10738194 -0.11594877 0.76373416
-0.08793623 -0.11697126 0.73649156
-0.093348116 -0.11724479 0.73783559
-0.098910943 -0.11766899 0.74012077
-0.029590977 -0.12235592 0.70873976
-0.039508633 -0.12216285 0.70728338
-0.071786329 -0.1263604 0.73057568
-0.077023581 -0.12649818 0.73104936
-0.02986107 -0.12850833 0.71477669
-0.035316378 -0.13005394 0.72340959
-0.040623054 -0.13073142 0.72708505
-0.029687995 -0.13276988 0.70995146
-0.034549892 -0.13221687 0.70678419
-0.040176257 -0.1343599 0.7183181
-0.030359039 -0.14089048 0.72571611
-0.035240117 -0.13994341 0.72058505
-0.040266834 -0.1397406 0.71934628
-0.045399193 -0.13990879 0.72003484
-0.046259947 -0.12184027 0.73638725
-0.051634829 -0.12230121 0.73900855
-0.067636974 -0.12303336 0.7427088
-0.035800684 -0.12667136 0.73412895
-0.046181902 -0.12680627 0.73455429
-0.051615383 -0.12745307 0.73815662
-0.056729868 -0.12726589 0.73680353
-0.061585374 -0.12657779 0.73246777
-0.066734642 -0.12655321 0.73203015
-0.046345551 -0.13244547 0.73662078
-0.051595174 -0.13259906 0.73726952
-0.056855932 -0.13275051 0.73788196
-0.062289361 -0.13324596 0.74042112
-0.067322195 -0.1328741 0.73801643
-0.071947165 -0.13180842 0.73165703
-0.077195928 -0.13195175 0.73212832
-0.046629492 -0.13847859 0.74060887
-0.051574208 -0.13773893 0.73634732
-0.056758747 -0.13771652 0.73597783
-0.06194064 -0.137692 0.73557287
-0.067557782 -0.13856396 0.74003166
-0.072578691 -0.13817564 0.73759454
-0.051619783 -0.14305905 0.73637021
-0.057031132 -0.14359526 0.73893934
-0.06231875 -0.14375621 0.73951161
-0.067441821 -0.14354204 0.7380901
-0.072736926 -0.14369848 0.73859006
-0.03501489 -0.073364511 0.7221334
-0.039306898 -0.071971744 0.70796651
-0.044744022 -0.072752856 0.71562743
-0.04994984 -0.073038414 0.71828341
-0.055268452 -0.07342156 0.7218948
-0.060151711 -0.073210604 0.71951699
-0.064301245 -0.072208345 0.70917732
-0.07020697 -0.073180541 0.71862763
-0.075432792 -0.07336127 0.72011137
-0.029029509 -0.075976029 0.69898504
-0.034723427 -0.077764422 0.71565604
-0.0400532 -0.078389086 0.72135973
-0.044976428 -0.078167297 0.7190842
-0.049937896 -0.078049943 0.71776801
-0.054957774 -0.078037001 0.71741027
-0.059893891 -0.077917255 0.71602714
-0.065165348 -0.078218557 0.71857297
-0.070190258 -0.078201905 0.71811134
-0.075719357 -0.078711592 0.72256142
-0.029708296 -0.082762368 0.71532828
-0.035139065 -0.08376582 0.7240414
-0.039341424 -0.081957139 0.70790929
-0.049587395 -0.082495816 0.71226168
-0.053977255 -0.081583165 0.70397937
-0.059148431 -0.081905432 0.70656526
-0.065148808 -0.083237275 0.71802229
-0.070267156 -0.083331883 0.71854985
-0.074888378 -0.082863741 0.71409941
-0.029619534 -0.08750996 0.71276253
-0.03461086 -0.087501019 0.71254343
-0.040625617 -0.089755438 0.73112702
-0.045378033 -0.089028321 0.7248863
-0.049101222 -0.08663173 0.70474792
-0.055300605 -0.088642851 0.72122765
-0.060024742 -0.088150308 0.71687496
-0.065307043 -0.088490263 0.71941519
-0.069774874 -0.087757036 0.71302235
-0.075071141 -0.088094182 0.71549237
-0.029611053 -0.092478327 0.71214855
-0.035308056 -0.094358578 0.72679323
-0.050505124 -0.094194829 0.72492468
-0.055284824 -0.093675628 0.72060573
-0.05984544 -0.092903383 0.71427894
-0.065200575 -0.09338858 0.71780628
-0.070417568 -0.093620457 0.7193194
-0.07626684 -0.094605595 0.72671664
-0.029803766 -0.098106116 0.71645242
-0.035533033 -0.10008724 0.73108238
-0.040655669 -0.10007547 0.73082256
-0.055862479 -0.099765345 0.72785646
-0.059827469 -0.097890355 0.71362823
-0.065356694 -0.098666869 0.71912658
-0.069544882 -0.097452685 0.70978373
-0.075230129 -0.098358467 0.71619427
-0.035474662 -0.10504182 0.72939318
-0.040588886 -0.10502947 0.72913361
-0.055919092 -0.10498258 0.72814608
-0.060781077 -0.10454546 0.72478634
-0.064633548 -0.10257387 0.71054566
-0.071130998 -0.10478161 0.72585922
-0.075713232 -0.1040613 0.72043133
-0.030066537 -0.10911158 0.72196472
-0.035227396 -0.10939299 0.72371852
-0.039174404 -0.10630934 0.70271754
-0.045261327 -0.10907319 0.72119385
-0.050254852 -0.10891078 0.71988088
-0.060031835 -0.10828876 0.71518248
-0.065577857 -0.10914425 0.72066802
-0.071674854 -0.11072811 0.73103553
-0.029975506 -0.11383612 0.71922833
-0.034414817 -0.11183571 0.70617425
-0.061387841 -0.11588044 0.7311703
-0.065818466 -0.11463508 0.72285926
-0.030327111 -0.12028558 0.72731173
-0.034543525 -0.1172386 0.70835257
-0.040492788 -0.12009963 0.72584242
-0.054896615 -0.11813065 0.71304458
-0.061203759 -0.1206632 0.72839463
-0.046058703 -0.085206002 0.73638624
-0.040829737 -0.095355175 0.73445952
-0.045972355 -0.09534242 0.7341634
-0.046262067 -0.10112377 0.73844206
-0.051097419 -0.10044525 0.73316449
-0.030439386 -0.10533153 0.73159647
-0.045883272 -0.10543388 0.73180443
-0.051553603 -0.10653372 0.73937738
-0.056197517 -0.11064687 0.73135835
-0.077005468 -0.11099514 0.73249722
-0.041207723 -0.11702366 0.73947239
-0.046034094 -0.11609043 0.73325539
-0.051518656 -0.11683784 0.73785347
-0.056474898 -0.11635996 0.73452801
-0.072217256 -0.11675034 0.73616505
-0.077080205 -0.11626562 0.73270553
-0.071813278 -0.12125254 0.73142034
-0.080153532 -0.022742854 0.71888822
-0.08058092 -0.027922563 0.72268945
-0.085962638 -0.028027963 0.72510034
-0.090648912 -0.027907511 0.72152132
-0.0911282 -0.033137511 0.72527981
-0.081106335 -0.038287468 0.72720343
-0.086290419 -0.038328622 0.72762483
-0.095656797 -0.037999935 0.72043616
-0.080662303 -0.043141399 0.72295523
-0.085703447 -0.04313013 0.72238773
-0.091228403 -0.043350004 0.72574919
-0.097060643 -0.043684959 0.73104948
-0.080000319 -0.047809336 0.71669167
-0.085691169 -0.048185442 0.72207624
-0.09072756 -0.048172116 0.72147447
-0.0960171 -0.048287507 0.72281754
-0.079770803 -0.052679762 0.7143653
-0.085216902 -0.052952249 0.71776724
-0.090469293 -0.053080678 0.71914864
-0.095873199 -0.05327975 0.72148174
-0.080732137 -0.058382541 0.72290808
-0.085202008 -0.057975598 0.71738881
-0.090087786 -0.057881262 0.715801
-0.097014494 -0.059038907 0.72999835
-0.080175012 -0.063012607 0.71754026
-0.085070662 -0.062911063 0.71598649
-0.095838279 -0.063385889 0.72068572
-0.080158465 -0.06803152 0.71709323
-0.08585877 -0.068565287 0.72246391
-0.088504799 -0.023629144 0.74711722
-0.092120312 -0.023222728 0.73359901
-0.1018657 -0.024322908 0.76863617
-0.10626502 -0.024100229 0.76099098
-0.097865701 -0.028537683 0.73773211
-0.10720529 -0.029692568 0.76773888
-0.081874512 -0.033510454 0.73439914
-0.086876154 -0.033457305 0.73283064
-0.097856343 -0.033704337 0.7375198
-0.10746609 -0.03515698 0.76949745
-0.092337824 -0.03872728 0.73494852
-0.10758965 -0.040595777 0.77022868
-0.10784697 -0.046104152 0.77191144
-0.10877986 -0.051961057 0.77849925
-0.092508294 -0.064595841 0.73516685
-0.092245549 -0.069557138 0.73273206
-0.080165133 -0.0076491372 0.7191993
-0.079294749 -0.012543787 0.71117836
-0.079507858 -0.017568575 0.71306336
-0.091760136 -0.018014243 0.7307632
-0.082119063 -0.0026805818 0.73712796
-0.088288508 -0.0027117399 0.74549019
-0.088863365 -0.0079782652 0.75042021
-0.094696246 -0.0080277743 0.75475848
-0.10188036 -0.0081805512 0.76896876
-0.11428086 -0.0082994057 0.779383
-0.088284224 -0.013140931 0.74538195
-0.095059291 -0.01336024 0.75766289
-0.087012254 -0.018091131 0.73435104
-0.098523691 -0.018320289 0.74300784
-0.10559404 -0.018649807 0.75618482
-0.028999975 -0.022104518 0.70067221
-0.034406733 -0.022441315 0.71144015
-0.038934313 -0.02219205 0.70320398
-0.044020772 -0.022281494 0.70591456
-0.04867211 -0.022154858 0.70160842
-0.05498014 -0.022736507 0.72019786
-0.058779836 -0.022270299 0.70486248
-0.064575166 -0.022573825 0.71440101
-0.069079965 -0.02241502 0.70896834
-0.075140432 -0.022748461 0.71941793
-0.029321177 -0.027293894 0.70849252
-0.034734759 -0.027667494 0.71825737
-0.038931165 -0.027099608 0.70303583
-0.044382505 -0.027434636 0.71173042
-0.048803568 -0.027129455 0.70343465
-0.053858306 -0.027200155 0.70507783
-0.059181571 -0.027383236 0.70967352
-0.065538965 -0.027979493 0.72517937
-0.06992837 -0.027710292 0.71775156
-0.07493107 -0.027703904 0.71725738
-0.029318331 -0.032235313 0.70828938
-0.034684137 -0.032632098 0.71705359
-0.038981464 -0.032050312 0.70383179
-0.045169596 -0.032979351 0.72448927
-0.05069394 -0.033285432 0.73114079
-0.054076567 -0.032257915 0.70786422
-0.064651839 -0.032600909 0.71502
-0.069731884 -0.032638311 0.71555632
-0.075838812 -0.033119142 0.72599572
-0.028951108 -0.036713693 0.69907176
-0.033924244 -0.036812436 0.70085269
-0.038760822 -0.036756776 0.69960737
-0.044007994 -0.037059344 0.70530719
-0.050079167 -0.037924986 0.72192889
-0.05407048 -0.037201263 0.7076273
-0.059575584 -0.037553076 0.71420908
-0.063499644 -0.036930945 0.70184815
-0.069724068 -0.037639968 0.71531665
-0.075525373 -0.038040891 0.722772
-0.028947372 -0.041590471 0.69880462
-0.033919875 -0.041702338 0.70058495
-0.039080143 -0.041987725 0.70532095
-0.044976104 -0.042911112 0.72098094
-0.049328398 -0.042324044 0.71069664
-0.053989064 -0.04208478 0.70636117
-0.059486669 -0.042483341 0.71294093
-0.064636283 -0.042590946 0.71450698
-0.069620289 -0.042581812 0.71404904
-0.076227158 -0.043500014 0.72944707
-0.02874106 -0.046140764 0.69351882
-0.033584312 -0.046135999 0.69330627
-0.038804263 -0.04658467 0.70003563
-0.044543631 -0.047486588 0.71369869
-0.048577052 -0.046571326 0.69943941
-0.053981271 -0.047017515 0.70605713
-0.060534395 -0.04830572 0.72556365
-0.064626969 -0.047583029 0.71419936
-0.070937984 -0.048480213 0.72764874
-0.074996747 -0.047821078 0.71722043
-0.028615184 -0.050764181 0.69019777
-0.033956733 -0.051547572 0.70094544
-0.039716642 -0.052688394 0.71663249
-0.043806374 -0.051606148 0.70141089
-0.049042769 -0.051956668 0.7060709
-0.055833738 -0.053739313 0.73058569
-0.060768425 -0.053586226 0.72819918
-0.065232873 -0.053074211 0.72081238
-0.070073269 -0.05291963 0.71836448
-0.075086392 -0.052907474 0.71786934
-0.029256681 -0.056835894 0.70577246
-0.034328487 -0.057065517 0.70854342
-0.038521048 -0.055959933 0.69435608
-0.044528618 -0.057443395 0.71298277
-0.048695967 -0.056493185 0.70072657
-0.055228449 -0.058209654 0.72224855
-0.059864242 -0.057806857 0.71688658
-0.063901141 -0.056932785 0.7055378
-0.069776542 -0.057704635 0.71500903
-0.074260525 -0.057299461 0.70955735
-0.029331848 -0.061928261 0.70735896
-0.034133039 -0.061666016 0.70415628
-0.039323881 -0.062085096 0.70888114
-0.0446417 -0.062588342 0.71456295
-0.050512359 -0.063687257 0.72716409
-0.055292271 -0.063335687 0.72282785
-0.060177609 -0.063153684 0.72044736
-0.064768918 -0.062715128 0.71505731
-0.070900649 -0.063724041 0.72650051
-0.074347906 -0.062346652 0.71014065
-0.02981046 -0.067965813 0.71885884
-0.034267526 -0.066853791 0.70670271
-0.03947771 -0.067306235 0.71142352
-0.044814836 -0.067849539 0.71710056
-0.049893405 -0.067931384 0.71777123
-0.055355195 -0.068472281 0.72337157
-0.060327519 -0.068367794 0.72198415
-0.065019451 -0.067986287 0.71758795
-0.070222601 -0.068155728 0.71910983
-0.075144924 -0.068048164 0.717623
-0.029117243 -0.071295485 0.70147526
-0.029247409 -0.0025646819 0.70700365
-0.035121366 -0.0026353537 0.72676474
-0.040184569 -0.0026350382 0.72650784
-0.045306735 -0.0026382266 0.72721457
-0.050372627 -0.0026378264 0.72688812
-0.055361591 -0.0026338389 0.72552991
-0.06017166 -0.0026227224 0.72214484
-0.065378606 -0.0026292868 0.7237094
-0.069470741 -0.0025932931 0.71329135
-0.07494916 -0.002610404 0.71777445
-0.02948964 -0.0075588794 0.71296406
-0.035215326 -0.0077239801 0.7287271
-0.039913498 -0.0076504904 0.72148025
-0.049897876 -0.0076379273 0.71986926
-0.054466568 -0.0075744749 0.71352863
-0.060821168 -0.0077492027 0.73008293
-0.065113209 -0.0076544373 0.72068608
-0.069944128 -0.0076320795 0.71823382
-0.074642852 -0.0075992565 0.7147553
-0.029974088 -0.012737707 0.72488397
-0.034079764 -0.012392624 0.70468748
-0.040182602 -0.012769234 0.72640276
-0.044269331 -0.012492559 0.71014333
-0.049286939 -0.012507848 0.71082199
-0.055135362 -0.012711889 0.72243369
-0.059355639 -0.012537805 0.71207494
-0.065463528 -0.012758537 0.72460049
-0.069467358 -0.012566945 0.71318793
-0.075250581 -0.012701355 0.72065443
-0.029851282 -0.017719463 0.7217831
-0.03440896 -0.01747755 0.71157634
-0.039856173 -0.0176915 0.72030884
-0.044267181 -0.017449085 0.71004122
-0.048878353 -0.01732645 0.70473528
-0.054387655 -0.017515495 0.71236038
-0.059190147 -0.017464302 0.70997953
-0.065019846 -0.017700668 0.71951711
-0.074941896 -0.017668802 0.71756691
-0.045671359 -0.0077738324 0.73316777
-0.072690472 -0.018368285 0.7469219
-0.20262991 0.12230656 0.83840221
-0.21084617 0.12362238 0.84661937
-0.21749191 0.1239698 0.84804064
-0.22491333 0.12472855 0.85228777
-0.029991835 0.13067435 0.86950094
-0.036193185 0.1311011 0.87224108
-0.042669062 0.13225563 0.8798787
-0.082522109 0.1370901 0.91088098
-0.089831166 0.13851929 0.92014402
-0.096460789 0.13877949 0.92147756
-0.11709157 0.14027478 0.93010592
-0.049251564 0.13340777 0.88746905
-0.055940364 0.13455757 0.89501143
-0.062262889 0.13468347 0.89559549
-0.069189951 0.13597442 0.90402794
-0.076073751 0.13697103 0.91043615
-0.027307196 -0.059200291 1.0015122
-0.41577148 0.24451132 0.97988093
-0.39627334 0.32683548 0.97648466
-0.40510941 0.32804054 0.97815919
-0.42008254 0.31345698 0.97777897
-0.36761865 0.24166255 0.97968769
-0.37524542 0.241926 0.9789654
-0.35028824 0.23252325 0.97614431
-0.36382928 0.30954275 0.97879338
-0.39010662 0.34256864 0.97813135
-0.4023205 0.33310649 0.9696905
-0.39861247 0.42534733 0.98054379
-0.41445917 0.42615429 0.97837055
-0.42348549 0.42764989 0.97976053
-0.41186398 0.40099192 0.97831905
-0.37615293 0.36544371 0.97875082
-0.29059374 0.23770043 0.97909629
-0.29807177 0.23800249 0.97895056
-0.28827345 0.22875942 0.97226584
-0.27894202 0.32587421 0.97466993
-0.27990076 0.31980446 0.97963989
-0.30196622 0.3131288 0.97857767
-0.29431093 0.30545637 0.97999012
-0.25400785 0.24375708 0.9801895
-0.27606079 0.24450491 0.97945112
-0.23150773 0.23537442 0.97923917
-0.27541834 0.2368612 0.97828281
-0.23876403 0.22856045 0.98016661
-0.25281584 0.22854048 0.97775334
-0.26020628 0.22885188 0.97788924
-0.32598552 0.51240396 0.98112631
-0.18730022 0.23285598 0.97447509
-0.18952857 0.29192892 0.97629434
-0.19760816 0.2934761 0.98062789
-0.13207071 0.25451344 0.98012823
-0.13131954 0.23919165 0.97676104
-0.13848449 0.23958583 0.97776753
-0.14595206 0.24044086 0.98064786
-0.15272805 0.24013056 0.97866619
-0.16010137 0.24074557 0.98048067
-0.16702443 0.24066037 0.97936362
-0.13113208 0.231923 0.9764393
-0.14546296 0.23268515 0.97841036
-0.15987478 0.23343255 0.98017734
-0.1329134 0.30528656 0.9772445
-0.14056228 0.3066557 0.98104793
-0.082645483 0.25271642 0.97658449
-0.089643255 0.25291461 0.97696191
-0.096650422 0.25310892 0.97729105
-0.10366665 0.25329936 0.97757167
-0.11090633 0.25397757 0.97973025
-0.11795312 0.25416011 0.97991186
-0.12476645 0.25384721 0.97812098
-0.082690828 0.24592379 0.97828639
-0.096755005 0.23949122 0.98065388
-0.10347646 0.2389731 0.97803521
-0.11059619 0.23938212 0.97923851
-0.12441728 0.23925868 0.97763401
-0.082375154 0.23117518 0.97669697
-0.089437693 0.23158346 0.9780516
-0.10332858 0.2317107 0.97770536
-0.11699903 0.23137198 0.97523326
-0.11916158 0.30603337 0.98086566
-0.034310684 0.26780427 0.98065603
-0.03423075 0.26023698 0.97956026
-0.034035839 0.24494757 0.97622812
-0.040936254 0.24492717 0.97597224
-0.047881588 0.24514267 0.97663903
-0.034054115 0.23817153 0.9778766
-0.041038387 0.23861778 0.97956413
-0.047907278 0.23836116 0.97828895
-0.075518012 0.23823065 0.9766041
-0.040859349 0.23068649 0.97630322
-0.047838606 0.23111638 0.97794676
-0.054681852 0.2308636 0.97662413
-0.061871246 0.2319652 0.98108834
-0.068722643 0.23170534 0.97967082
-0.075483508 0.23121573 0.97723562
-0.062511355 0.29736641 0.98026383
-0.027615799 0.33363816 0.97768962
-0.048870571 0.3348304 0.98069459
-0.063019611 0.33506957 0.98087603
0.022105023 -0.31182474 0.57040948
0.017746229 -0.31184533 0.57054681
0.0132657 -0.30904335 0.56535828
0.0089857383 -0.31046394 0.56808305
0.0046378779 -0.31000125 0.56724715
0.00030111242 -0.30765527 0.56285006
-0.0040249615 -0.30953217 0.56636852
-0.0083780494 -0.31046516 0.56809139
-0.012814766 -0.31280261 0.57243186
0.021117611 -0.30206102 0.54275608
0.01698022 -0.30255666 0.54376644
0.012728276 -0.30066931 0.54035163
0.0085825752 -0.30068049 0.54042518
0.0044365027 -0.30068731 0.54047006
0.00029161468 -0.30211711 0.54312497
-0.003868243 -0.30163944 0.54223311
-0.0080654593 -0.30306053 0.54483056
-0.01235935 -0.30590433 0.55003679
0.026741836 -0.31508669 0.57641608
0.025440037 -0.30393931 0.54611105
0.44138053 -0.371894 0.57688969
0.41678175 -0.34879825 0.57573605
0.018460033 -0.31985304 0.59570825
0.013945298 -0.32033309 0.59670562
0.0094032027 -0.32034498 0.59678596
0.00031798813 -0.32035488 0.59685296
-0.0042247376 -0.32035288 0.59683943
-0.0087292194 -0.31895551 0.59413695
0.00033819216 -0.32138374 0.64227492
0.021779602 -0.31315541 0.72587216
0.016531246 -0.31511688 0.73060805
0.0057549356 -0.31474683 0.7298398
0.00037602388 -0.31436038 0.72893959
-0.0050019738 -0.31474748 0.72984499
-0.010367386 -0.31435189 0.72887105
0.021544628 -0.31507039 0.71636188
0.01627234 -0.31548208 0.71740985
0.011068562 -0.31826141 0.72393233
0.0056789131 -0.31589648 0.7184788
0.0003743057 -0.31827134 0.72401077
-0.0049358979 -0.31589714 0.71848392
-0.010166178 -0.31351843 0.71292132
0.021390783 -0.31807622 0.70960617
0.016135897 -0.31809276 0.70973492
0.010894047 -0.31850627 0.71074325
0.005631349 -0.31851357 0.71079999
0.00036886873 -0.3189179 0.71173638
-0.0048945565 -0.31851426 0.71080512
-0.010144494 -0.31810594 0.70983768
0.015999464 -0.32061476 0.70205814
0.010788314 -0.32062674 0.70215011
0.0055766925 -0.32063407 0.70220619
0.00036436433 -0.32022879 0.70131361
-0.0048532183 -0.32104266 0.70312423
-0.010071517 -0.32103595 0.70307302
0.010641475 -0.32140353 0.69083124
0.0055007883 -0.32141086 0.69088662
0.00035847168 -0.32017094 0.68817621
0.027297553 -0.31507948 0.73030758
0.032650959 -0.3201623 0.72792363
0.026870038 -0.31544471 0.71711391
0.026846584 -0.32046461 0.7149325
0.07281094 -0.22573064 0.77790207
0.16385522 -0.22839402 0.77829498
0.13945708 -0.18089923 0.77839047
0.037639435 -0.31326929 0.85625058
0.036690325 -0.31745902 0.83129877
0.41828105 -0.37621331 0.66258633
0.42066693 -0.37399894 0.64271867
0.41954651 -0.3779062 0.65171593
0.41072503 -0.37488845 0.64846718
0.41765532 -0.38169315 0.64680493
0.41886082 -0.39313087 0.67091542
0.40888804 -0.38410527 0.64169192
0.41092417 -0.39122954 0.65595812
0.41221458 -0.39272127 0.64507943
0.42074165 -0.40625679 0.66997063
0.42073423 -0.39589527 0.63509953
0.40938675 -0.39548057 0.63857752
0.42119959 -0.41238549 0.66865999
0.41739008 -0.37241653 0.7300632
0.42158622 -0.3767997 0.72296792
0.42067432 -0.3766048 0.70715857
0.41800666 -0.37948206 0.7148006
0.40720272 -0.37494963 0.70814657
0.40269625 -0.37616855 0.71254355
0.39831695 -0.3724522 0.69049454
0.39569086 -0.37535343 0.69800222
0.39297494 -0.37825352 0.7055099
0.38673931 -0.37780166 0.70661294
0.38431454 -0.38111526 0.71489763
0.41442263 -0.39342648 0.71706885
0.41290247 -0.39765853 0.72704411
0.40734795 -0.39807233 0.72988528
0.42112941 -0.40580356 0.72689277
0.40093911 -0.40362915 0.72911346
0.42113668 -0.41182074 0.72484571
0.41425049 -0.41095185 0.72538608
0.40309039 -0.41180488 0.73104751
0.42069092 -0.4173888 0.72197485
0.41600752 -0.41871786 0.72643358
0.40352145 -0.41826171 0.72975272
0.39201286 -0.41248271 0.721448
0.41890529 -0.42159554 0.71673703
0.4194237 -0.41622284 0.69105834
0.41898566 -0.35248423 0.62294698
0.4195402 -0.35825664 0.6220066
0.42260671 -0.37156466 0.62299192
0.42195168 -0.34871683 0.64139396
0.42241389 -0.35362849 0.65278375
0.42150098 -0.3583332 0.64955056
0.41171068 -0.35461128 0.6447289
0.4215216 -0.36789787 0.67159832
0.40745518 -0.36042207 0.65970385
0.40844229 -0.36623976 0.67267221
0.40284193 -0.3662301 0.67469776
0.41961348 -0.35753411 0.63421363
0.41474023 -0.35796702 0.63709837
0.41513795 -0.36302057 0.64841139
0.42163348 -0.36465597 0.6355226
0.41806948 -0.37107989 0.65124655
0.40266311 -0.37121832 0.68614078
0.46451792 -0.32029229 0.71379131
0.44165993 -0.31654131 0.71206278
0.44259682 -0.32143837 0.72556311
0.49747631 -0.32090026 0.68359667
0.54404771 -0.33061692 0.72965336
0.53585911 -0.32938069 0.7295754
0.53705454 -0.33628356 0.72956294
0.52671605 -0.33585936 0.71355033
0.52977431 -0.36635494 0.7218681
0.40378836 -0.32206845 0.93194771
0.4235304 -0.27864027 0.93141437
0.42539823 -0.29403251 0.93274623
0.56565291 -0.28625271 0.88231784
0.57060856 -0.30301332 0.88720107
0.48147842 -0.22031344 0.87855828
0.63542742 -0.22796808 0.93161184
0.020726992 -0.12487122 0.72384119
0.015531006 -0.12404572 0.71903616
0.010570868 -0.12521632 0.72602642
0.00035747603 -0.12522054 0.72610092
-0.0047241026 -0.12455361 0.72214192
-0.0098690894 -0.12538338 0.72702211
-0.020120954 -0.12553832 0.72780347
0.010594815 -0.13061824 0.72712451
0.005483943 -0.1307947 0.7281642
0.00035543481 -0.12958321 0.72128999
-0.0047348719 -0.12992881 0.72324473
-0.0098521095 -0.13027236 0.72516471
-0.014956255 -0.13026738 0.72508001
-0.024927974 -0.12903887 0.71791613
0.010590494 -0.13568117 0.7262162
0.00035623976 -0.1349659 0.7223562
-0.024683686 -0.13278116 0.71013695
0.00035561435 -0.13980922 0.72043574
-0.0047309394 -0.13999493 0.72140324
-0.0098177465 -0.13999182 0.72135365
-0.019803168 -0.13867253 0.71427578
-0.024873856 -0.13884954 0.71510541
0.0055078994 -0.12621851 0.73199725
-0.015200892 -0.12721016 0.73778158
-0.025473345 -0.12669498 0.73454702
0.021105599 -0.13233784 0.73675501
0.015900001 -0.13217203 0.73589677
-0.020299776 -0.13181935 0.73382139
0.02140075 -0.13944668 0.74665105
0.015872685 -0.13711523 0.73399407
0.0055397903 -0.13730407 0.73512381
-0.0048339097 -0.13784422 0.73807967
-0.01007072 -0.13838099 0.74097973
-0.015208603 -0.13765596 0.7369594
-0.020584801 -0.13890809 0.74372101
0.022026559 -0.14893636 0.76826882
0.016053373 -0.14390519 0.74188119
0.01100721 -0.14633746 0.75474292
0.0055519631 -0.14279452 0.73613435
-0.015341279 -0.14409277 0.7428782
-0.010441513 -0.15429625 0.76747137
-0.016009927 -0.15583718 0.77522928
0.020292249 -0.072393969 0.71272868
0.015453692 -0.073090434 0.71981424
0.010237035 -0.07180763 0.70696759
0.0053136046 -0.072106168 0.71000576
0.00034618701 -0.071810089 0.70703971
-0.019540882 -0.072196819 0.71075821
-0.024813576 -0.073081732 0.71955872
0.020619957 -0.078629427 0.72414595
0.015387261 -0.077788375 0.71631587
0.010502423 -0.078742824 0.72535247
0.0053997738 -0.078322016 0.72142935
0.00035277804 -0.07821703 0.72045457
-0.0045476067 -0.075891145 0.69856352
-0.0095030041 -0.076417886 0.7034874
-0.014306557 -0.075780764 0.69744051
-0.01964324 -0.07757327 0.71422487
-0.024304081 -0.076510996 0.70413548
0.015466932 -0.083229236 0.71974194
0.010499738 -0.083795033 0.72479808
0.0053765373 -0.083009779 0.71789706
0.00034982819 -0.082560614 0.71394199
-0.004698413 -0.083459876 0.72187632
-0.0093560275 -0.080083661 0.69202
-0.014203157 -0.080080554 0.69193965
-0.019343913 -0.081313312 0.70275247
-0.024398554 -0.081757404 0.70657611
0.0054333447 -0.088964738 0.72525632
0.00035592739 -0.089084797 0.72626889
-0.0046021822 -0.086699069 0.70639706
-0.0093534896 -0.084908299 0.69145721
-0.014418676 -0.086216748 0.70229626
-0.019311918 -0.086092785 0.70118845
-0.024425494 -0.086802125 0.70699382
0.0054681916 -0.094645783 0.72959208
0.00035725432 -0.094520614 0.72861999
-0.0047147763 -0.09388984 0.72364491
-0.0097710676 -0.093761683 0.72260356
-0.014853158 -0.093884073 0.72351146
-0.019707486 -0.092870861 0.71545959
-0.024820995 -0.093242325 0.71828228
-0.004700698 -0.098663993 0.72100502
-0.0098075019 -0.099192888 0.72491986
-0.014948323 -0.099587418 0.72780854
-0.019835193 -0.098519802 0.7197628
-0.024779968 -0.098114565 0.71663851
0.0003537006 -0.10368627 0.72032964
-0.0047308281 -0.1043833 0.72526574
-0.0097912615 -0.10410184 0.72323585
-0.019828895 -0.10353404 0.71907359
-0.025174361 -0.1047825 0.72782803
0.020666577 -0.1092739 0.72327524
0.010554246 -0.10972341 0.72645539
0.0054775327 -0.11016504 0.72947764
0.0003583417 -0.11016604 0.72949755
-0.0047418987 -0.10972638 0.72651494
-0.0096830381 -0.10796831 0.71459532
-0.014858932 -0.10913449 0.72242439
-0.020036016 -0.10971371 0.72626126
-0.025199499 -0.1099986 0.72808462
0.015521662 -0.11385925 0.71967226
0.01062091 -0.11554734 0.73063016
0.00035678982 -0.11478601 0.72576404
-0.0047023254 -0.11386694 0.71981984
-0.0098108295 -0.11447653 0.72372305
-0.014654652 -0.11263569 0.71178252
-0.019948933 -0.11431292 0.72253197
-0.024755262 -0.11308078 0.71447742
0.020624245 -0.11918484 0.72072881
0.015745429 -0.1206295 0.7297346
0.010448306 -0.11871701 0.71797997
0.0054445607 -0.11967866 0.7239567
0.00035570914 -0.11951996 0.72298944
-0.0046627098 -0.11792129 0.71310312
-0.0098334877 -0.119836 0.72489893
-0.014967795 -0.12015098 0.72678852
-0.020101866 -0.12030426 0.72765571
-0.025282055 -0.12061536 0.72947437
0.021030305 -0.085361347 0.73849136
0.021107705 -0.090861671 0.74086893
0.015901543 -0.09074758 0.74000251
0.010665965 -0.090274289 0.73612231
0.021323191 -0.09702839 0.74816453
0.015938763 -0.096151777 0.74134952
0.010634736 -0.09514752 0.73350507
0.021344434 -0.10236938 0.74847555
0.015892182 -0.10104737 0.73869413
0.010730091 -0.10118427 0.73977578
0.0055174921 -0.10065565 0.73586696
0.00035952733 -0.10025818 0.73291361
0.021226961 -0.10702144 0.74380016
0.015887136 -0.10619025 0.73798716
0.010768916 -0.10675277 0.74203843
0.0055302926 -0.10605767 0.73714316
-0.015083053 -0.1056328 0.73404199
0.015923588 -0.11162075 0.7392233
0.021129547 -0.11691338 0.73930579
0.0054974407 -0.11570324 0.7316733
0.051385295 -0.12512089 0.72433525
0.046350982 -0.12530607 0.72565258
0.05615636 -0.12945892 0.71916848
0.051775005 -0.13121133 0.72935963
0.041449007 -0.13107543 0.72901267
0.051344302 -0.13521856 0.72255915
0.046190966 -0.13505892 0.7219103
0.04126795 -0.13561662 0.72515458
0.025865899 -0.13529857 0.72387618
0.051322684 -0.14025822 0.72161937
0.062493689 -0.12177726 0.7352224
0.036777209 -0.12234797 0.73987114
0.026309639 -0.12205182 0.73832881
0.068518966 -0.12854514 0.74375099
0.064025804 -0.13006733 0.75304466
0.058581688 -0.12975816 0.75149697
0.04168437 -0.12665437 0.73382765
0.036715332 -0.12733521 0.73803395
0.031525467 -0.12734835 0.73826677
0.026368547 -0.127526 0.73944956
0.065064728 -0.1375685 0.7648989
0.047378853 -0.13330851 0.74149102
0.036892828 -0.13316903 0.74108261
0.031677868 -0.13318275 0.74131656
0.026427006 -0.13302116 0.74053043
0.057259232 -0.13717389 0.73298079
0.036829852 -0.138151 0.73917389
0.031376727 -0.13708581 0.73351055
0.048384782 -0.14680807 0.75627047
0.042016469 -0.14328294 0.73794502
0.036766376 -0.14311326 0.73723257
0.031733915 -0.14387436 0.74139202
0.026680138 -0.14482002 0.74649984
0.066773854 -0.07418181 0.72893822
0.025897756 -0.074168719 0.73047411
0.025373712 -0.077672593 0.71504378
0.051663421 -0.10527641 0.73043698
0.066552207 -0.10957944 0.72356093
0.056389645 -0.10962106 0.72439963
0.031023478 -0.10998769 0.72786593
0.025639115 -0.10882719 0.72015101
0.062106583 -0.1158774 0.73111135
0.056520436 -0.11498106 0.72560525
0.051560014 -0.11530601 0.72794521
0.046385247 -0.11517042 0.72729313
0.036310252 -0.11565869 0.73081762
0.067214601 -0.12095542 0.72986239
0.056875687 -0.12084156 0.72972518
0.051199581 -0.11958433 0.72221726
0.046306882 -0.12008135 0.72550493
0.062087864 -0.07469061 0.73433489
0.058611766 -0.076878294 0.75657046
0.052092325 -0.075112261 0.73908299
0.046988204 -0.075222567 0.74041396
0.042197913 -0.075924873 0.7476719
0.036540117 -0.0750442 0.73899662
0.031209726 -0.074656539 0.73525131
0.067646861 -0.080327392 0.73831904
0.063468874 -0.081610337 0.75065511
0.058597766 -0.082153313 0.756028
0.051737238 -0.079738021 0.73359269
0.047100421 -0.080595203 0.74186808
0.041638497 -0.080077991 0.73720735
0.036483228 -0.080087647 0.73747373
0.03140888 -0.080307372 0.73969221
0.067363083 -0.085144445 0.73478448
0.063124396 -0.086397268 0.7461195
0.05677567 -0.084727556 0.73167014
0.051998097 -0.085303724 0.73699641
0.046594698 -0.084867083 0.73336673
0.041792624 -0.085553177 0.73961979
0.03661827 -0.085563481 0.7398873
0.031235591 -0.085010201 0.73515558
0.026437141 -0.086142324 0.7452817
0.067878 -0.090988711 0.7401194
0.062861182 -0.091245055 0.74254376
0.057437859 -0.090904355 0.73998481
0.052052543 -0.090562113 0.7373876
0.046705499 -0.090218335 0.73475218
0.042110737 -0.091422565 0.74496675
0.037089411 -0.091910399 0.74920315
0.031103212 -0.089774013 0.73158211
0.026188446 -0.09049736 0.73773032
0.067592211 -0.095777176 0.73651689
0.06399183 -0.098187961 0.75574464
0.057195693 -0.095687822 0.7363795
0.052448504 -0.096459404 0.74269032
0.04693887 -0.095844306 0.73807973
0.041604705 -0.095479444 0.73541075
0.036357418 -0.095238946 0.73369521
0.031755004 -0.096886769 0.74681103
0.026215438 -0.095761329 0.73808688
0.067660727 -0.10105105 0.73683316
0.062742367 -0.101469 0.74024034
0.05845749 -0.10307951 0.75251037
0.052569609 -0.10190256 0.74399203
0.046924733 -0.10098907 0.73740828
0.043457776 -0.1051172 0.76838934
0.036346454 -0.10035116 0.73302799
0.031704143 -0.10195467 0.74514198
0.026242007 -0.10103431 0.73840666
0.068438292 -0.10744862 0.74500251
0.064526357 -0.10970015 0.76124096
0.057912547 -0.10735008 0.74487764
0.047156446 -0.10668691 0.740655
0.041798402 -0.10628292 0.73799282
0.036671367 -0.10643515 0.73924947
0.031817894 -0.1075623 0.74739689
0.026199209 -0.10603704 0.73671025
0.062455922 -0.11135471 0.73582792
0.05308282 -0.11344014 0.75042605
0.046955939 -0.11141033 0.7369476
0.042113539 -0.11230277 0.74317664
0.036563095 -0.11129249 0.73652965
0.06821461 -0.11753581 0.74149704
0.041550759 -0.11595082 0.73252571
0.031507578 -0.11689467 0.73894662
0.026146943 -0.11613987 0.73420584
0.0416453 -0.12137514 0.73368859
0.031372476 -0.12156189 0.73517275
-0.004363481 -0.039975055 0.67142379
-0.0090025365 -0.039741728 0.66738516
0.005041487 -0.044855125 0.67412424
0.0050114952 -0.049271926 0.66981256
0.00032594451 -0.048985492 0.66584098
-0.008894518 -0.048481997 0.65880054
0.00032397825 -0.053318314 0.66150326
-0.0042853011 -0.053082369 0.658499
-0.0088929432 -0.053081155 0.65845406
0.00032677807 -0.058447413 0.66710186
-0.0043415162 -0.058447 0.66708809
-0.0089964485 -0.058360342 0.66604638
0.00033243321 -0.064208001 0.67863619
-0.0043342737 -0.06301 0.66567779
0.015644899 -0.023034174 0.73108077
0.010210344 -0.022295047 0.70718402
0.00035006017 -0.022604194 0.7172513
-0.0046254592 -0.022480687 0.71323866
-0.0094145034 -0.022048449 0.69919795
-0.014311911 -0.022078419 0.7001164
-0.024414362 -0.022383941 0.70984405
0.015622688 -0.0280903 0.72990727
0.010308363 -0.027488966 0.7140094
0.0053505087 -0.027602633 0.71706057
0.0003500318 -0.027602889 0.71708
-0.0045299181 -0.026887212 0.69807923
-0.0094400737 -0.026999563 0.70102936
-0.01433074 -0.026998501 0.70094824
-0.024244256 -0.027145676 0.7046808
0.010490918 -0.033043858 0.72679067
0.0053791837 -0.032777846 0.72085112
0.00034713291 -0.032333396 0.71088058
-0.0044914149 -0.031488154 0.69188517
-0.0093338387 -0.031531896 0.692837
-0.014329346 -0.031886436 0.70074725
-0.01919204 -0.031840209 0.69963413
-0.024342773 -0.032193664 0.70747417
0.015514717 -0.038003471 0.72446215
0.010390904 -0.037748601 0.71955788
0.0053493837 -0.037595689 0.71661574
0.00035091309 -0.037698612 0.71863246
-0.0044909068 -0.036313515 0.69165385
-0.0092143118 -0.035902362 0.68361789
-0.014207829 -0.03646512 0.6945222
-0.024138307 -0.036819462 0.70124888
0.020564536 -0.043049097 0.72406256
0.015428974 -0.042819172 0.72019333
0.010064888 -0.041426498 0.69632429
0.0051589706 -0.041078933 0.69038677
0.00033654657 -0.040963098 0.68840885
-0.014205994 -0.041308872 0.69425684
-0.023563746 -0.040722717 0.68401939
0.020200821 -0.047251057 0.71078408
0.014903439 -0.046215229 0.6949423
0.01000697 -0.046022397 0.69203395
0.00034317994 -0.046673127 0.70208341
-0.024366956 -0.047053412 0.70766103
0.019809151 -0.051202029 0.69648612
0.015026608 -0.05149183 0.70059353
0.0099771339 -0.050705053 0.68970883
-0.024363039 -0.051987633 0.70732313
0.020193994 -0.057158425 0.71007168
0.014982101 -0.056219477 0.69823223
0.0099753672 -0.055515099 0.68934643
0.005134596 -0.055280924 0.68640739
-0.014259041 -0.056062821 0.69625282
-0.01936562 -0.056766368 0.70510793
-0.024291528 -0.056762334 0.70495892
0.020079166 -0.061766867 0.70568091
0.015125655 -0.061685089 0.70480496
0.010199151 -0.06168763 0.70489144
0.0051919431 -0.060750626 0.69398463
-0.014116525 -0.0603204 0.68888068
-0.018933406 -0.060317088 0.68876791
-0.024286851 -0.061677735 0.70455492
0.020213617 -0.067146957 0.71021956
0.015268914 -0.067242913 0.71133608
0.010211127 -0.066692978 0.7054494
0.0052273115 -0.066049814 0.69853216
-0.0094285207 -0.066048443 0.69848913
-0.014652569 -0.067611814 0.71533251
-0.019116879 -0.065765925 0.69530773
-0.024046689 -0.065945454 0.69715095
-0.0045106877 -0.070424832 0.69309419
-0.0093080811 -0.070027582 0.68906683
-0.014190244 -0.070321582 0.6919716
0.020795289 -0.023094514 0.73295498
0.0055115437 -0.023282416 0.73922086
0.020793607 -0.02820164 0.73277998
-0.020212574 -0.028390156 0.73779416
0.020958142 -0.033574216 0.73856187
0.015746811 -0.033442732 0.73569101
0.020816991 -0.03846284 0.73332375
-0.015519938 -0.055723432 0.75944388
0.0054467302 -0.0026469962 0.73057544
-0.0098111164 -0.0026433929 0.72953075
-0.01461412 -0.0025936163 0.71544927
-0.019734854 -0.002611212 0.72033077
-0.024519235 -0.0025861918 0.71318293
0.0054320376 -0.0077165314 0.72854018
-0.0046959408 -0.0076750629 0.72454536
-0.019412771 -0.0075082304 0.70830077
-0.024317034 -0.0074973241 0.70715207
0.00035344338 -0.012724129 0.72449052
-0.0047275159 -0.012810014 0.7294749
-0.0095472606 -0.012465832 0.70942998
-0.014473467 -0.012448152 0.70834839
-0.019358516 -0.012413074 0.70623374
-0.02428261 -0.012412188 0.70608479
0.010493468 -0.017843958 0.72731155
0.0054388959 -0.017892445 0.72936529
0.00035438134 -0.017820558 0.72638589
-0.0047209389 -0.017868467 0.72837037
-0.0096653076 -0.017627895 0.71832466
-0.014512739 -0.017435079 0.71024549
-0.019250326 -0.017242001 0.70213479
-0.024079638 -0.017192746 0.69998848
-0.0187397 -0.021553021 0.68301636
-0.0050386218 0.0080184601 0.77854347
0.021548435 0.0025413551 0.76029658
0.016296808 0.0025480518 0.76242512
0.011087728 0.0025710845 0.76951742
0.0055854558 0.0025056431 0.74957556
0.00037782098 0.0025908255 0.77559561
-0.010377398 0.0025809223 0.77252746
-0.015753666 0.0025808208 0.77243829
-0.02110236 0.0025774029 0.77131283
-0.026066411 0.0025379215 0.7591573
0.020937517 -0.0026750488 0.7383045
0.015710285 -0.0026610112 0.73443073
0.010593366 -0.0026611215 0.73452044
0.00035680426 -0.0026505687 0.73159528
-0.0047467863 -0.0026540987 0.7325803
0.020826099 -0.0077777929 0.73427045
0.015919494 -0.0078819506 0.7443924
0.010607316 -0.0077889357 0.73548472
0.00035966426 -0.0078099486 0.73755944
-0.0098504601 -0.007757856 0.73249483
-0.015133663 -0.0078508919 0.74140799
0.020964257 -0.012980314 0.73919731
0.01577235 -0.012946675 0.73732346
0.010578724 -0.012878437 0.73341459
0.0054975683 -0.012947542 0.73746866
0.020852171 -0.0180343 0.73509383
0.015792528 -0.018107386 0.73821718
0.025725296 -0.033082623 0.72741884
0.030954638 -0.043448672 0.73069513
0.025511658 -0.042871654 0.72091192
0.035997029 -0.048471238 0.72915608
0.030536382 -0.047892302 0.72041112
0.025749901 -0.048350889 0.72758323
0.030779686 -0.053344693 0.7260465
0.025158267 -0.052202161 0.71029001
0.041234646 -0.058862828 0.73114872
0.030732885 -0.058326654 0.72466922
0.025637548 -0.058253355 0.72386533
0.030933741 -0.063804023 0.7292316
0.02559806 -0.063212566 0.72245497
0.036066771 -0.06897068 0.72954512
0.030803258 -0.068609558 0.72579426
0.025661802 -0.068431467 0.72399676
0.069012478 -0.023866581 0.75615215
0.063498341 -0.023778986 0.75361663
0.057493802 -0.023475327 0.74406523
0.052377675 -0.023510123 0.74543691
0.046812534 -0.023328837 0.73979098
0.041601997 -0.023301231 0.73909473
0.03635487 -0.023242421 0.73736429
0.031961251 -0.023799799 0.75557083
0.026525287 -0.02364778 0.75077635
0.069006935 -0.02914446 0.75597131
0.06341099 -0.028999873 0.75244051
0.057715505 -0.028779536 0.74687666
0.052648008 -0.028859671 0.74924654
0.046994265 -0.028600687 0.74260634
0.041433569 -0.028341163 0.73592484
0.036400139 -0.028419903 0.7381863
0.031503294 -0.028648786 0.74440777
0.026039017 -0.028350161 0.73661554
0.06882222 -0.034332111 0.75376433
0.064473949 -0.034827676 0.76516783
0.057860814 -0.034078807 0.7486549
0.052642923 -0.034084577 0.74903178
0.046680577 -0.033556476 0.73740804
0.041814685 -0.033783354 0.7426964
0.03634841 -0.033520728 0.73697704
0.031044915 -0.033346426 0.73321491
0.067746215 -0.038978681 0.74157566
0.063397743 -0.039498828 0.75197315
0.057854302 -0.039301191 0.7484045
0.052499738 -0.039205354 0.74678874
0.047478989 -0.039365146 0.75011951
0.042415116 -0.039524361 0.75341719
0.036488906 -0.038811386 0.73972332
0.031124184 -0.038559113 0.7349655
0.026275558 -0.03897281 0.74314517
0.068627641 -0.044736598 0.75123537
0.06503395 -0.045906305 0.77158421
0.057771448 -0.044463649 0.74712306
0.05249298 -0.04441312 0.74650353
0.046792924 -0.043955419 0.73887277
0.041584559 -0.043903392 0.73817766
0.036387812 -0.043850649 0.73744667
0.067193776 -0.048942968 0.73500955
0.062969439 -0.049666025 0.7463901
0.057838514 -0.049740065 0.74779695
0.052897051 -0.050007928 0.7521559
0.04715699 -0.049496628 0.74453115
0.041413546 -0.048854627 0.73487145
0.068962723 -0.055507857 0.75452733
0.06443882 -0.056163725 0.76392615
0.058507819 -0.055600915 0.75639111
0.052819971 -0.055180334 0.75080174
0.047581982 -0.055188794 0.75114435
0.041241925 -0.0537627 0.73153287
0.036135785 -0.05376922 0.7317968
0.067527115 -0.059518911 0.73824364
0.063112631 -0.060236737 0.74762839
0.05894981 -0.061346132 0.76195806
0.052810658 -0.060414966 0.75040752
0.047141097 -0.059874903 0.7437849
0.036129404 -0.058869969 0.73141259
0.068047889 -0.065184347 0.74377418
0.062196758 -0.064515598 0.73627704
0.058034066 -0.065635629 0.74959934
0.053280517 -0.0662435 0.75693536
0.047317356 -0.065315671 0.74634206
0.041611493 -0.064557105 0.73769349
0.036266934 -0.064223766 0.73397905
0.067855924 -0.070192195 0.74132818
0.063005313 -0.070574284 0.74574292
0.056891728 -0.06948293 0.73424023
0.05210397 -0.069954872 0.73957783
0.047122236 -0.070241734 0.74289721
0.041877624 -0.070159286 0.74220675
0.051836912 0.0024708912 0.73781431
0.04743864 0.0025105504 0.75012743
0.041443653 0.0024650658 0.73645467
0.036698353 0.0024915591 0.74471056
0.031262532 0.0024721767 0.7389484
0.027013855 0.0025575412 0.76512855
0.051562265 -0.0026625844 0.73382318
0.046881977 -0.002687816 0.74114406
0.041773871 -0.0026917334 0.74244475
0.036408994 -0.0026778744 0.73871678
0.031138303 -0.0026675169 0.73595035
0.026149124 -0.0026819468 0.74014294
0.059916966 -0.0082270661 0.77629334
0.051904701 -0.007834658 0.73877531
0.046695661 -0.0078254994 0.73811394
0.04171814 -0.0078576775 0.74141026
0.036697738 -0.0078897392 0.74467373
0.031137787 -0.0077972566 0.73591459
0.02625246 -0.0078705465 0.74310505
0.069554612 -0.013410667 0.76238102
0.063176475 -0.013190102 0.74988347
0.056972083 -0.012969242 0.73733574
0.0516284 -0.012919902 0.73471433
0.047003385 -0.013059359 0.74303269
0.042267136 -0.013198646 0.75132245
0.036551878 -0.013028379 0.74160606
0.031343799 -0.013012569 0.74083889
0.026113257 -0.012979356 0.73903662
0.068482608 -0.018443657 0.75032258
0.062268581 -0.018159505 0.73881602
0.057422061 -0.018258853 0.74321079
0.051969152 -0.018165966 0.73959553
0.047001094 -0.018240763 0.74292588
0.041659724 -0.018171268 0.74023438
0.036694758 -0.018269513 0.74449521
0.031342279 -0.018175408 0.74073255
0.02635408 -0.018297102 0.74592435
0.093834892 -0.12929097 0.77970988
0.087815896 -0.12852705 0.77542567
0.074727856 -0.1249182 0.75395048
0.082851253 -0.13480508 0.78001446
0.074986018 -0.13067926 0.7560246
0.077436268 -0.14045298 0.78060287
0.076669142 -0.073672116 0.77851135
0.075120963 -0.077523537 0.7621423
0.076593801 -0.095374785 0.77620476
0.07599844 -0.1000349 0.769611
0.075497821 -0.10474182 0.76397747
0.075474054 -0.11007302 0.76324475
0.074876107 -0.11452264 0.75656772
0.074754782 -0.11965015 0.7547847
0.1333839 -0.14141905 0.78122371
0.13380899 -0.1641064 0.78092921
0.17207184 -0.10256743 0.77975482
0.07314276 -0.065085083 0.74230051
0.082148761 -0.0030360417 0.83764833
0.0058263978 0.067956574 0.78068352
0.00037980653 0.062289178 0.77815914
-0.0050596143 0.057015821 0.78054446
0.018156895 0.12703918 0.84508324
0.012257164 0.12719037 0.84617615
0.006335984 0.12719354 0.84623951
0.00041592951 0.12763278 0.84923047
0.070735164 0.12588166 0.8354345
0.065412879 0.12692584 0.84280217
