ply
format ascii 1.0
comment PCL generated
element vertex 1395
property float x
property float y
property float z
element camera 0
property float view_px
property float view_py
property float view_pz
property float x_axisx
property float x_axisy
property float x_axisz
property float y_axisx
property float y_axisy
property float y_axisz
property float z_axisx
property float z_axisy
property float z_axisz
property float focal
property float scalex
property float scaley
property float centerx
property float centery
property int viewportx
property int viewporty
property float k1
property float k2
end_header
-0.30064943 0.080517679 1.5417997
-0.31578445 0.081647724 1.5622357
-0.2779786 0.06946788 1.5384026
-0.2889449 0.06952706 1.5384343
-0.30143958 0.069936603 1.5462362
-0.31836724 0.071310773 1.5754908
-0.27906033 0.058976144 1.544742
-0.28970253 0.058951754 1.5428017
-0.3003315 0.058926512 1.5407891
-0.31525996 0.059717432 1.5602614
-0.2782023 0.04806583 1.5401878
-0.2889944 0.048076339 1.5392365
-0.29997605 0.04811649 1.5391916
-0.31548044 0.048854247 1.5616118
-0.27821967 0.037339192 1.5404794
-0.28992581 0.037465382 1.5444423
-0.30075222 0.037472919 1.5434096
-0.3170687 0.038140338 1.5697503
-0.27858463 0.026644455 1.542666
-0.28884318 0.026599774 1.5387632
-0.30076626 0.02670609 1.5436287
-0.31669122 0.027148122 1.5680124
-0.32172635 0.1165466 1.5905493
-0.32177618 0.10544206 1.5913064
-0.17945574 0.015687834 1.5311439
-0.19097908 0.015764059 1.5378234
-0.20247293 0.015829928 1.5434257
-0.21256079 0.015784776 1.5380453
-0.22329618 0.01578973 1.537549
-0.23507808 0.015864855 1.5438997
-0.24539885 0.01583912 1.5402842
-0.25698164 0.01589359 1.5444938
-0.26778695 0.015897531 1.54369
-0.18049589 0.0051174578 1.5401548
-0.19159223 0.0051291045 1.5428574
-0.20247608 0.0051341322 1.5434972
-0.21310638 0.005132548 1.5420797
-0.22415359 0.0051406776 1.5435591
-0.23418732 0.005125883 1.5380384
-0.24493524 0.0051273289 1.5373926
-0.25649798 0.0051449975 1.5416055
-0.26779103 0.0051560565 1.5437616
-0.18061109 -0.0055473843 1.5411469
-0.19110404 -0.0055423048 1.538886
-0.20221843 -0.0055548316 1.5415125
-0.21283516 -0.005553118 1.5400966
-0.22458045 -0.0055796062 1.546527
-0.23463446 -0.0055635758 1.5410033
-0.24618167 -0.0055828053 1.5452932
-0.25698552 -0.0055842744 1.5445641
-0.26728314 -0.0055750674 1.5408036
-0.18060815 -0.016215229 1.5410724
-0.19134499 -0.016221071 1.5407965
-0.20208631 -0.016226657 1.5404464
-0.21283169 -0.016231989 1.5400223
-0.22358061 -0.016237069 1.5395241
-0.23492879 -0.016283222 1.5429065
-0.24539863 -0.016267125 1.5402799
-0.25649381 -0.016292091 1.5415294
-0.2676174 -0.016316792 1.5427001
-0.18048707 -0.02686514 1.5399321
-0.19158292 -0.026926288 1.5426342
-0.20195109 -0.026884103 1.5393081
-0.2128249 -0.026910087 1.5398751
-0.22414273 -0.02698705 1.5433356
-0.23417598 -0.026909381 1.5378155
-0.24616984 -0.027053958 1.5450706
-0.25713575 -0.027078198 1.5453279
-0.26760891 -0.027050685 1.542552
-0.18070889 -0.037572045 1.5416988
-0.19132964 -0.037561614 1.5404296
-0.20232773 -0.037622452 1.5420623
-0.21349244 -0.03770661 1.5446078
-0.22427428 -0.037718333 1.5441043
-0.234612 -0.037657704 1.5405612
-0.24553494 -0.037692204 1.5408995
-0.25582328 -0.037630472 1.5372152
-0.26708844 -0.037711613 1.5393752
-0.18046682 -0.048181303 1.5394202
-0.19192748 -0.048383247 1.5450972
-0.2024436 -0.04833832 1.5427603
-0.21388546 -0.048507858 1.5472848
-0.22383313 -0.048338514 1.5408425
-0.23474611 -0.048383567 1.541256
-0.24583094 -0.048458576 1.5425804
-0.25873247 -0.048870452 1.5546741
-0.26774856 -0.048544828 1.5430216
-0.18091331 -0.058986466 1.5430256
-0.19130215 -0.058894992 1.5397717
-0.20191239 -0.058877748 1.5384305
-0.21346186 -0.059122369 1.5439472
-0.22438449 -0.059178293 1.5444328
-0.23547265 -0.059270788 1.54583
-0.2456557 -0.059137318 1.5412261
-0.25724947 -0.059340425 1.5454301
-0.26891208 -0.05954247 1.5495477
-0.18435258 -0.07099694 1.5723572
-0.19665149 -0.071509592 1.5829612
-0.20974734 -0.07224258 1.5984241
-0.22346985 -0.073107012 1.6167511
-0.23560263 -0.073393613 1.6221105
-0.24796791 -0.073723212 1.6283678
-0.26183134 -0.074450046 1.6434134
-0.27168694 -0.074024156 1.6327173
-0.18022342 0.11156183 1.5351799
-0.19105974 0.11167354 1.5358943
-0.20268628 0.11221091 1.5424678
-0.21210887 0.11153544 1.5321547
-0.22253755 0.11142829 1.5296843
-0.23458071 0.11210243 1.5379928
-0.24487966 0.1119206 1.5343862
-0.25676441 0.11244845 1.5405525
-0.26908314 0.11311641 1.5485948
-0.18128857 0.10151305 1.544826
-0.19133385 0.10116259 1.5386007
-0.20233217 0.10132643 1.540228
-0.21227778 0.1009731 1.533868
-0.22271481 0.1008761 1.531396
-0.23417068 0.1012284 1.5357611
-0.24476238 0.10119268 1.5341276
-0.25631729 0.10154151 1.5383291
-0.26811025 0.1019529 1.5434289
-0.18027771 0.090298608 1.5365571
-0.19123916 0.090446658 1.5382636
-0.20094493 0.090016559 1.5299928
-0.2128499 0.090565361 1.5384771
-0.22303085 0.090363227 1.5340242
-0.23330995 0.090217464 1.5304925
-0.2444855 0.090415947 1.5328093
-0.25586608 0.090670496 1.5360304
-0.26747128 0.090981029 1.5401522
-0.17983977 0.079456702 1.5331688
-0.19089746 0.079638235 1.5358708
-0.20187156 0.079767562 1.5375035
-0.21233475 0.079692148 1.5351005
-0.22334348 0.079818912 1.5365814
-0.23423329 0.079893559 1.5369967
-0.24513917 0.079966925 1.5373356
-0.25589812 0.079988249 1.5366125
-0.26716632 0.080160648 1.5387676
-0.1806663 0.069150507 1.5406213
-0.19140661 0.069175415 1.5403438
-0.2013789 0.068934798 1.5340483
-0.21330684 0.069354184 1.5425363
-0.22322586 0.069111526 1.5361007
-0.23411009 0.06917619 1.5365174
-0.24423155 0.069019675 1.5319238
-0.2569012 0.06956625 1.5430362
-0.26702639 0.069407605 1.5382935
-0.18033779 0.058372803 1.5380785
-0.19130279 0.058468476 1.5397877
-0.20217061 0.058525912 1.5404283
-0.21251388 0.058433343 1.5370327
-0.22353157 0.058526214 1.5385143
-0.23383413 0.058431905 1.5349768
-0.24518922 0.058597371 1.538281
-0.25562528 0.058538534 1.5355859
-0.26722065 0.058739264 1.5397152
-0.18058257 0.047785614 1.5404263
-0.19131796 0.047802843 1.5401502
-0.20180029 0.047758363 1.5378175
-0.2129373 0.04786551 1.5403659
-0.22397609 0.047941402 1.5418451
-0.23444872 0.047894701 1.5392925
-0.2448969 0.047847312 1.5366697
-0.25564533 0.047860079 1.535949
-0.26724157 0.048024189 1.5400796
-0.1804788 0.037097856 1.5397229
-0.19096401 0.037063874 1.5374633
-0.20232819 0.037195068 1.5420725
-0.21308626 0.037207268 1.5416465
-0.22356328 0.037171561 1.5391669
-0.23565589 0.037395492 1.5474913
-0.24491231 0.037169449 1.5369595
-0.25647399 0.037297543 1.5411712
-0.26641199 0.037188709 1.5354441
-0.17968059 0.026320636 1.5329871
-0.19097306 0.026414597 1.5376797
-0.20208018 0.026474347 1.5403067
-0.21268967 0.026466183 1.5388919
-0.22328916 0.026457611 1.5374049
-0.23462355 0.026532928 1.5407888
-0.2457028 0.026574081 1.542115
-0.256486 0.026581112 1.5413889
-0.26760933 0.026621414 1.5425593
-0.079260841 0.064768024 1.4470222
-0.07986965 0.045121845 1.4587485
-0.079982929 0.035099722 1.4610186
-0.090361267 0.035213601 1.4654276
-0.09115722 0.025315806 1.4786075
-0.06900271 0.044607833 1.4422861
-0.069007136 0.034652956 1.4425564
-0.068726845 0.024594914 1.4367665
-0.083180226 0.015524208 1.5202705
-0.092256226 0.015289976 1.4967109
-0.10453513 0.015580292 1.5249783
-0.11504303 0.015577678 1.5242292
-0.12611462 0.015645431 1.5303851
-0.13780402 0.015773421 1.5424374
-0.14852466 0.01578011 1.5424564
-0.15935348 0.015796626 1.5433961
-0.16976799 0.015772576 1.5402846
-0.083127454 0.0050317058 1.5193421
-0.093232036 0.005011383 1.5127505
-0.10426597 0.0050400775 1.521058
-0.11422523 0.0050163264 1.5133302
-0.12457164 0.0050121341 1.5115187
-0.13736561 0.0050994507 1.537528
-0.14814736 0.0051048938 1.5385456
-0.15742378 0.0050612115 1.5245662
-0.17009608 0.0051253377 1.5433383
-0.082262084 -0.0053942031 1.5033642
-0.093475588 -0.0054431153 1.5167416
-0.10494297 -0.0054954714 1.5310335
-0.11549188 -0.0054945494 1.5302814
-0.12562867 -0.0054758191 1.5244739
-0.1368369 -0.0055030761 1.5315499
-0.14833713 -0.0055373185 1.5405352
-0.15915255 -0.0055431239 1.5414765
-0.16911972 -0.0055205114 1.5343901
-0.083829157 -0.016068103 1.5322481
-0.093778521 -0.015962269 1.5216591
-0.10433192 -0.015970211 1.5219811
-0.11340372 -0.015770657 1.5022871
-0.12603317 -0.01605784 1.5293841
-0.13718709 -0.016127143 1.5354606
-0.1484296 -0.016196163 1.5414566
-0.15925165 -0.016213126 1.5423971
-0.1699848 -0.016219484 1.5422685
-0.082095817 -0.026088422 1.5001539
-0.094140828 -0.026566019 1.5275022
-0.10365152 -0.026304279 1.5118607
-0.11570975 -0.026677789 1.5330536
-0.12716742 -0.026861819 1.5431901
-0.13779941 -0.026856462 1.542286
-0.14851969 -0.026867852 1.542305
-0.1592465 -0.026878813 1.5422502
-0.16987082 -0.02687219 1.5411276
-0.083443791 -0.037039328 1.5248967
-0.093953595 -0.037034303 1.5242916
-0.10527125 -0.037316661 1.5355837
-0.11577865 -0.037286412 1.5338323
-0.1262669 -0.037255578 1.53201
-0.13717602 -0.037344091 1.5350957
-0.14879721 -0.037599832 1.5450708
-0.15913713 -0.037519235 1.5410358
-0.16986263 -0.037533954 1.5409077
-0.084357679 -0.048082776 1.5415752
-0.095347896 -0.048261162 1.5469494
-0.10600907 -0.048253838 1.5462623
-0.11666518 -0.048245758 1.5455028
-0.12715307 -0.048175309 1.5426781
-0.13822433 -0.04831969 1.5467525
-0.1489774 -0.048340086 1.5467678
-0.15963529 -0.048328936 1.5457151
-0.1699602 -0.048224702 1.5416089
-0.08440493 -0.058753453 1.5422087
-0.094974913 -0.058707863 1.5405992
-0.10593285 -0.058887098 1.5448999
-0.11583633 -0.058501024 1.5341754
-0.12714282 -0.058828823 1.5423129
-0.13759659 -0.058741894 1.5394185
-0.14887057 -0.058992468 1.5454071
-0.15962251 -0.059016459 1.545349
-0.16994657 -0.058889173 1.5412436
-0.11880458 -0.070869662 1.5735894
-0.12956911 -0.070812255 1.5717463
-0.14031388 -0.070753746 1.5698303
-0.15160756 -0.070960574 1.5738083
-0.16194534 -0.070722237 1.5677681
-0.17383423 -0.071148686 1.5765575
-0.086883791 -0.071435302 1.5876588
-0.097887747 -0.071470074 1.5880257
-0.10883293 -0.071459241 1.5873203
-0.083810784 0.11076131 1.529368
-0.094427705 0.11081775 1.5297559
-0.10512137 0.11094382 1.5310661
-0.11673053 0.11192462 1.5442381
-0.12665589 0.11126186 1.5344579
-0.13742131 0.11138249 1.5355449
-0.14811254 0.11142997 1.5355641
-0.15870868 0.11140437 1.5345174
-0.17027278 0.11201878 1.5423226
-0.083932288 0.10033774 1.5320807
-0.094564512 0.10038877 1.532468
-0.10513815 0.1003736 1.5317868
-0.11615349 0.10074431 1.5370041
-0.12691988 0.10085505 1.5381647
-0.13753127 0.10083502 1.5372627
-0.14804126 0.10074884 1.5352947
-0.15863229 0.10072569 1.5342486
-0.16954099 0.10089447 1.5361063
-0.084376819 0.090228952 1.5407041
-0.094517276 0.089754388 1.5321203
-0.10522097 0.089856386 1.5334318
-0.11572341 0.089783594 1.531682
-0.12701938 0.090287052 1.5398117
-0.13728681 0.090038091 1.5349311
-0.14787276 0.090018772 1.5339581
-0.15865499 0.090113506 1.5348996
-0.16891472 0.089918219 1.5308039
-0.085306667 0.080465823 1.5582365
-0.094468512 0.079129301 1.5316999
-0.1053021 0.07932125 1.5350051
-0.11618505 0.079511851 1.538234
-0.12671049 0.079446331 1.5364097
-0.13712817 0.079328619 1.5335195
-0.14779675 0.079362534 1.5335419
-0.15857352 0.079446115 1.5344846
-0.16915306 0.079426572 1.5333668
-0.094539985 0.068602391 1.533201
-0.10551694 0.068856999 1.5385001
-0.11619807 0.06888964 1.5387403
-0.12656207 0.068744555 1.534924
-0.13705541 0.068686739 1.5330293
-0.14752862 0.068627849 1.5310638
-0.1590995 0.069053262 1.5399598
-0.16971409 0.069036275 1.5388383
-0.086135507 0.059523687 1.5741554
-0.094914362 0.05824535 1.5396175
-0.10573013 0.058348581 1.5419247
-0.11620922 0.058264121 1.5391741
-0.12600517 0.05788001 1.5283852
-0.13786136 0.058428507 1.5424206
-0.1477325 0.058117338 1.5334854
-0.15850466 0.058178566 1.5344298
-0.16940491 0.058276169 1.5362926
-0.092425629 0.046368092 1.499074
-0.10431702 0.047063496 1.5213445
-0.11584601 0.047483113 1.5345516
-0.12666561 0.047565993 1.5367137
-0.13725567 0.047556516 1.5358133
-0.14764941 0.047485258 1.532851
-0.15841562 0.047535323 1.5337963
-0.16974376 0.047737133 1.5396348
-0.1041206 0.036489423 1.5186375
-0.11481036 0.036554474 1.5208822
-0.12642978 0.0368798 1.5340128
-0.13708824 0.036896165 1.5341101
-0.14784858 0.036935639 1.535129
-0.15781559 0.036784906 1.5281171
-0.16975453 0.037083883 1.5399239
-0.081501044 0.025488373 1.4891787
-0.10453179 0.026106661 1.5248362
-0.12676108 0.026351033 1.5382147
-0.13806394 0.026480971 1.5452813
-0.14785562 0.026323216 1.5353448
-0.15843323 0.026317138 1.5343
-0.16976261 0.026428863 1.5401407
0.021920865 0.01567293 1.5363659
0.011389769 0.015754119 1.5444789
0.00074321131 0.015713867 1.5405203
-0.0098805223 0.015723856 1.5414891
-0.020491088 0.015713394 1.5403857
-0.031166974 0.015743073 1.543209
-0.041587345 0.01566142 1.5349631
-0.052333806 0.015710784 1.5396403
-0.062862761 0.015689217 1.5372488
-0.07298325 0.01558664 1.5267954
0.022020085 0.0051061409 1.5434359
0.011382648 0.0051062712 1.5435501
0.00074370072 0.0050997669 1.5415913
-0.0098933708 0.005106282 1.5435601
-0.020504579 0.0050996142 1.5414567
-0.031147476 0.0051026884 1.5422803
-0.041722074 0.0050958563 1.5400321
-0.052368261 0.0050987662 1.5407106
-0.063025557 0.0051015941 1.5413163
-0.07194446 0.004983197 1.5048903
0.022005953 -0.0055280365 1.5424346
0.01136074 -0.0055210809 1.5405488
0.00074417813 -0.0055282279 1.54259
-0.0098743308 -0.005521093 1.5405589
-0.020491404 -0.0055209659 1.5404553
-0.031147467 -0.0055278442 1.5422786
-0.04188294 -0.0055417297 1.5460285
-0.05243551 -0.0055306898 1.542708
-0.062904179 -0.0055160169 1.5383173
-0.073031642 -0.0054799751 1.5278631
0.02203384 -0.016179414 1.5443605
0.011360552 -0.016138338 1.5404749
0.00074607646 -0.016200716 1.5465158
-0.009886859 -0.016159119 1.5424849
-0.020517403 -0.016158743 1.5423809
-0.031146957 -0.01615811 1.5422049
-0.041882247 -0.016198697 1.5459543
-0.052367389 -0.016145689 1.5406353
-0.062943593 -0.016133904 1.5392425
-0.072935902 -0.015997451 1.525792
0.022033121 -0.026822912 1.5442138
0.011389385 -0.026823591 1.5443277
0.00074461923 -0.026806645 1.5433693
-0.0098738447 -0.026754877 1.5403386
-0.020490397 -0.026754253 1.540235
-0.031165933 -0.02680479 1.543058
-0.041934513 -0.026889265 1.5478065
-0.052062992 -0.026612282 1.5314953
-0.062901087 -0.026730277 1.5380974
-0.072177254 -0.026246237 1.5096674
0.022074414 -0.037537158 1.5469931
0.01139613 -0.037490077 1.5451081
0.0007455381 -0.03749042 1.5451496
-0.00993047 -0.037586223 1.5491168
-0.020568406 -0.037513312 1.546014
-0.031224377 -0.03751184 1.5458372
-0.041878842 -0.037509758 1.5455879
-0.05229586 -0.037338994 1.5382718
-0.062978923 -0.037383743 1.5398765
-0.073638961 -0.037403878 1.5404092
0.022016494 -0.048074655 1.5427029
0.01138809 -0.048106711 1.5438166
0.00074548967 -0.048137989 1.5448573
-0.009904447 -0.048137657 1.5448263
-0.020553902 -0.048136547 1.5447221
-0.031282317 -0.048257999 1.548543
-0.041876126 -0.048162829 1.5452957
-0.052426986 -0.048066892 1.5419766
-0.06313663 -0.048124343 1.5435799
-0.073539659 -0.047965225 1.5381209
0.022057073 -0.058818858 1.5453362
0.011452862 -0.059083946 1.5524453
0.00074590679 -0.058820892 1.5454919
-0.0099290218 -0.058933452 1.5484585
-0.020539073 -0.058743816 1.5433583
-0.031259801 -0.058892127 1.5471783
-0.041658275 -0.058512338 1.5369391
-0.052523617 -0.058809355 1.5446085
-0.063171968 -0.058804225 1.5442139
-0.073817275 -0.058798134 1.5437466
0.022196127 -0.069912441 1.5548877
0.011480944 -0.069958687 1.5560015
0.00075013179 -0.069870383 1.5540453
-0.0099914949 -0.070047796 1.5580097
-0.020760879 -0.070135124 1.5599028
-0.031316716 -0.06968765 1.5497363
-0.042270735 -0.070128508 1.5594726
-0.053056486 -0.070167959 1.5601461
-0.064015061 -0.070384137 1.5647383
-0.07508596 -0.070643604 1.5702522
0.021986535 0.11131355 1.5384629
0.011379892 0.11145926 1.5405716
0.00074495294 0.11153173 1.5416102
-0.0098592732 0.11110226 1.5355945
-0.02046016 0.11109971 1.5354909
-0.031159932 0.11145259 1.5403013
-0.041658465 0.11108924 1.5350671
-0.052221261 0.11100992 1.5337501
-0.062848747 0.11107164 1.5343541
-0.073392369 0.11098876 1.5328928
0.021947717 0.10051427 1.5361928
0.011396309 0.10096931 1.5432914
0.00074459525 0.10084096 1.5413371
-0.009936953 0.10129274 1.5482911
-0.020476604 0.10057937 1.5372108
-0.031124977 0.1007047 1.5390302
-0.041638352 0.10044062 1.5347915
-0.052229632 0.10043346 1.5344713
-0.062777966 0.10036008 1.5330817
-0.07330966 0.1002851 1.5316204
0.021993242 0.090098001 1.5398371
0.011346879 0.089926787 1.5369562
0.00074422552 0.090158932 1.5409906
-0.0098876515 0.090158314 1.5409595
-0.02051905 0.090156227 1.5408556
-0.031209402 0.090326183 1.5436739
-0.041644368 0.089858599 1.5354406
-0.052237175 0.089852192 1.5351204
-0.063838199 0.091289714 1.5596656
-0.073414721 0.089835063 1.5342631
0.021981951 0.079432435 1.5394171
0.01137023 0.079485461 1.5405295
0.00074384385 0.079486199 1.540571
-0.0099079525 0.079689711 1.5445343
-0.020521691 0.079534836 1.5414346
-0.031073529 0.079327658 1.5372642
-0.041676525 0.079323269 1.537016
-0.051100846 0.077532329 1.501761
-0.06230988 0.078596629 1.5223325
-0.073329642 0.079149477 1.5328448
0.022040905 0.068997681 1.5439185
0.011342316 0.068690009 1.5370396
0.00074440503 0.068911657 1.542076
-0.0098583167 0.068690173 1.5370498
-0.020392351 0.068467572 1.5319517
-0.031057037 0.068685882 1.5367705
-0.041734818 0.06881468 1.5395185
-0.051779047 0.068058476 1.5222238
-0.061993364 0.067743197 1.5148472
-0.070880674 0.066278055 1.4814575
0.022085393 0.058467668 1.5473506
0.01135801 0.058170076 1.5394708
0.000746387 0.058432307 1.5465072
-0.0098973345 0.058319747 1.543478
-0.020446982 0.05805672 1.5363797
-0.031199951 0.058353502 1.544197
-0.041738845 0.05820075 1.5399518
-0.05242293 0.058271348 1.5416282
-0.06349574 0.058677364 1.5522177
-0.073628493 0.058222838 1.5397696
0.0220448 0.047710545 1.5447148
0.011410023 0.047772884 1.546828
0.00074644701 0.04777332 1.5468695
-0.0098473709 0.047436778 1.5358437
-0.020435458 0.047435686 1.5357404
-0.031022556 0.047433823 1.5355648
-0.04158134 0.047400631 1.5343177
-0.052124474 0.047366686 1.5329989
-0.062853687 0.047484763 1.536602
0.021876741 0.036778338 1.5330087
0.011330449 0.036850497 1.5361209
0.00074267411 0.036922071 1.5391612
-0.0098480033 0.036850587 1.5361311
-0.020436773 0.036849737 1.536028
-0.031064529 0.036895774 1.5378512
-0.041610826 0.03684625 1.5356045
-0.052329615 0.036938578 1.5392811
-0.063464455 0.037243925 1.5518733
0.022033157 0.02639726 1.544221
0.011382102 0.026381005 1.5433352
0.00074462051 0.026381249 1.5433766
-0.0098928986 0.026381064 1.5433453
-0.020437755 0.026262004 1.5362432
-0.031125996 0.026345575 1.5410658
-0.041451953 0.026158001 1.5298228
-0.051995803 0.026156131 1.5295039
-0.062982097 0.026339928 1.5401026
0.014282051 -0.10037485 1.9389721
0.00093385851 -0.10032447 1.9380251
-0.012407082 -0.10032377 1.9379859
-0.025655279 -0.099962436 1.9308655
-0.038646892 -0.099189222 1.9156681
-0.052236106 -0.099953003 1.9303341
-0.28222331 0.17936911 1.5564224
-0.29626906 0.18130392 1.5720439
-0.30789617 0.18167309 1.5738879
-0.27965841 0.16695383 1.5429264
-0.29123625 0.16740949 1.5458701
-0.30192244 0.16733834 1.5438462
-0.2790207 0.15581259 1.5401107
-0.29002708 0.15594476 1.5401273
-0.30161428 0.15636863 1.5429974
-0.27855423 0.14480954 1.5381967
-0.28972515 0.14502399 1.5391967
-0.30149055 0.14550994 1.5430498
-0.27825898 0.1339249 1.5371865
-0.28996614 0.1343772 1.5411292
-0.30155125 0.13474259 1.5440061
-0.27813518 0.12313893 1.5370823
-0.29038522 0.12378845 1.5439696
-0.3019858 0.12412451 1.5468463
-0.33126691 0.16580524 1.6355497
-0.3313385 0.15438798 1.636642
-0.32435396 0.1399218 1.6024852
-0.32304287 0.12818986 1.5965588
-0.18332836 0.17845552 1.557934
-0.19410369 0.17840654 1.5566466
-0.20525552 0.17869051 1.5582418
-0.21440919 0.17729372 1.5449911
-0.22722544 0.17891428 1.5582449
-0.23800205 0.17885427 1.5566578
-0.24907863 0.1790151 1.5569603
-0.25708881 0.17705075 1.5385574
-0.27077085 0.17899336 1.5543941
-0.18095873 0.16546023 1.5383713
-0.19147289 0.16530958 1.5361135
-0.20235027 0.16547188 1.5367434
-0.21256867 0.16510603 1.532371
-0.22373107 0.16547334 1.5348219
-0.23493703 0.16583791 1.5371925
-0.24556388 0.16577974 1.5355533
-0.25601718 0.16561416 1.5328606
-0.26678321 0.16565602 1.5320579
-0.18100156 0.15480819 1.5394639
-0.19151813 0.15466721 1.5372052
-0.20214084 0.15462229 1.5358624
-0.21194203 0.15398499 1.5285317
-0.22335739 0.15452535 1.5329595
-0.23409918 0.15457167 1.5323834
-0.24546586 0.15500854 1.5356649
-0.25591478 0.1548536 1.5329722
-0.26667649 0.15489276 1.532171
-0.18012083 0.14341578 1.5325707
-0.19131671 0.14383434 1.5362474
-0.20269983 0.14434202 1.5408307
-0.21239479 0.14365691 1.5325056
-0.22326435 0.14379379 1.5329919
-0.23385283 0.14374539 1.5314326
-0.24458605 0.14378633 1.5307846
-0.25661993 0.14455651 1.5379224
-0.26724172 0.14450137 1.5361354
-0.1807334 0.1332282 1.5384614
-0.19074655 0.13276727 1.5322477
-0.20196949 0.13315266 1.5358505
-0.21243821 0.13302706 1.5334494
-0.22302566 0.13298427 1.5319641
-0.23434713 0.1333631 1.5353324
-0.24510264 0.13340086 1.5346818
-0.2558603 0.13343658 1.5339566
-0.2672959 0.13380881 1.5370847
-0.18053745 0.12241998 1.5373534
-0.19114842 0.12238617 1.5360855
-0.20213641 0.12258459 1.5377111
-0.21302007 0.122703 1.5382715
-0.22406292 0.12289742 1.5397424
-0.23409344 0.12254415 1.5342344
-0.24468179 0.12250098 1.5326014
-0.25672019 0.12315706 1.5397489
-0.267515 0.12318785 1.5389435
-0.12981959 0.17933168 1.5692093
-0.13838769 0.17638281 1.5425519
-0.15114227 0.1788101 1.5633334
-0.16175248 0.17854528 1.5602883
-0.17254448 0.17850177 1.5591481
-0.083993793 0.16396266 1.5296556
-0.094633773 0.16404602 1.5300392
-0.1056207 0.16465345 1.5353101
-0.11675853 0.16536343 1.5414951
-0.12684968 0.16459626 1.5337243
-0.13789511 0.16509022 1.5377755
-0.1477704 0.16421294 1.5288789
-0.15844381 0.16428068 1.5288241
-0.16977291 0.16497709 1.5346271
-0.084175847 0.15370318 1.5337194
-0.094838753 0.15378112 1.5341022
-0.10564591 0.15405367 1.5363975
-0.11589373 0.15353534 1.5306786
-0.1267987 0.15390155 1.5338193
-0.13740011 0.15387115 1.5329181
-0.14846876 0.15433078 1.5368977
-0.1584814 0.15370469 1.5299089
-0.17002973 0.15455312 1.5376947
-0.084086627 0.14293668 1.5327433
-0.094677478 0.14291741 1.5321332
-0.10539903 0.14307947 1.5334383
-0.11599394 0.14305568 1.5326831
-0.12658332 0.14302965 1.5318557
-0.13751861 0.14336823 1.5349234
-0.14812264 0.14333764 1.5339493
-0.15851653 0.14312144 1.5309212
-0.16974241 0.14363642 1.5357431
-0.084158093 0.13244556 1.5346774
-0.095001213 0.13276766 1.5380449
-0.10542087 0.13249274 1.5343784
-0.11586911 0.13230072 1.5316356
-0.12709677 0.13295625 1.5387537
-0.13737103 0.13259016 1.5338805
-0.14891149 0.13341103 1.5428258
-0.15865076 0.13261633 1.5328526
-0.16956064 0.13283849 1.5347058
-0.083904095 0.12146522 1.5305674
-0.094715275 0.12176165 1.5339394
-0.10584685 0.1223688 1.541214
-0.11626345 0.12211387 1.5374731
-0.12679617 0.12201342 1.53565
-0.13748528 0.12206738 1.5357419
-0.14799182 0.12196314 1.5337752
-0.15878256 0.12209136 1.534713
-0.1692678 0.12198334 1.5326027
-0.080136783 0.19057058 1.6709753
-0.092121422 0.19144528 1.6783271
-0.12029769 0.18138207 1.5878944
0.021991869 0.16446105 1.5357509
0.011375345 0.16457061 1.536859
0.00074227137 0.16415039 1.5329226
-0.0099060265 0.16488725 1.5398525
-0.020478319 0.16425094 1.5337822
-0.031087637 0.16424456 1.5336065
-0.041534889 0.16360307 1.5273937
-0.052435569 0.16464557 1.5370131
-0.062864244 0.16410431 1.5316509
-0.073504947 0.16419289 1.5321794
0.022053542 0.15426835 1.5408169
0.011407227 0.15437087 1.541926
0.00074340287 0.15378043 1.5359967
-0.0098767225 0.15377939 1.5359656
-0.020470079 0.15357858 1.5338719
-0.031135 0.15386851 1.5366808
-0.041812524 0.15405734 1.5384218
-0.052347392 0.15375055 1.5351166
-0.063161984 0.15423028 1.5396948
-0.073852852 0.15431303 1.5402215
0.022100791 0.14392217 1.5448201
0.01138791 0.14346655 1.539956
0.0007430925 0.14310046 1.5360141
-0.0098789334 0.14319131 1.5369785
-0.020553565 0.14355542 1.5408578
-0.031161932 0.14336613 1.53869
-0.041741557 0.1431746 1.5364505
-0.052359104 0.14316444 1.5361292
-0.063135706 0.1435193 1.5397158
-0.073633343 0.1432291 1.5362648
0.022048961 0.13293296 1.5417805
0.011368403 0.13259612 1.5379094
0.00074658653 0.13310765 1.543929
-0.0099126808 0.13302167 1.5429013
-0.020505229 0.13259336 1.5378157
-0.031128481 0.13258819 1.5376396
-0.041750241 0.13258091 1.5373911
-0.052369986 0.13257149 1.5370699
-0.06302762 0.132645 1.537672
-0.073507011 0.13237627 1.5342201
0.021996764 0.12199181 1.5386642
0.011348709 0.12176014 1.5357871
0.00074195873 0.121683 1.5348316
-0.0099209258 0.12246468 1.5447694
-0.020509174 0.12199235 1.5386844
-0.031274263 0.12253533 1.5454854
-0.041758265 0.12198089 1.5382596
-0.052514441 0.12228516 1.5419236
-0.062676035 0.12133573 1.5295758
-0.073190577 0.121245 1.5281163
-0.068943344 0.1915997 1.6804185
-0.34362334 0.26850316 1.9733496
-0.30254364 0.2549479 1.9807699
-0.34203616 0.25354311 1.9653581
-0.37227717 0.25546542 1.9770849
-0.28679585 0.23952185 1.969739
-0.30024916 0.23932312 1.9667543
-0.31383055 0.23923938 1.9646593
-0.32853264 0.23998128 1.9693295
-0.34348258 0.24083742 1.9748696
-0.35852414 0.24168926 1.9802982
-0.37055796 0.2405256 1.9690202
-0.23203121 0.23956917 1.9748493
-0.24579093 0.23962218 1.9742054
-0.26045209 0.24050203 1.9803585
-0.27399206 0.24031015 1.9775515
0.0128368 0.19771093 1.7354254
0.00083311449 0.19614179 1.7215605
-0.011074947 0.19625266 1.7225192
-0.022483613 0.19198437 1.6846464
-0.034151774 0.19208911 1.6854466
-0.045751642 0.19185421 1.6831871
-0.057892639 0.19352348 1.6977322
-0.094167106 0.23752394 1.9651866
-0.10785061 0.23773377 1.9664809
-0.012704063 0.26610205 1.9748493
-0.040062003 0.26635075 1.9764713
-0.01273321 0.25302097 1.9805864
-0.026313553 0.23832162 1.9731975
-0.039886132 0.23795545 1.9699932
-0.053469468 0.23782347 1.9686822
0.11945672 0.015970763 1.5630054
0.10758564 0.015812023 1.5478222
0.096360154 0.015723631 1.5395377
0.085747935 0.015725801 1.5401591
0.075083353 0.015717624 1.539709
0.06459441 0.015749577 1.5431826
0.054130618 0.015801478 1.5485837
0.043429404 0.015792547 1.547917
0.032676887 0.015753062 1.5441781
0.11945861 0.0051798099 1.5630777
0.10717539 0.0051086904 1.5419079
0.096670918 0.0051160236 1.5445992
0.085694246 0.0050970884 1.5392317
0.075180985 0.0051042582 1.5417778
0.064761065 0.0051211715 1.5472502
0.054096889 0.005121632 1.5476558
0.043346785 0.0051121847 1.5449896
0.032698348 0.0051124794 1.5452491
0.12036413 -0.0056539285 1.5750419
0.10724401 -0.0055378922 1.5429043
0.096856438 -0.0055529284 1.5475919
0.085859336 -0.0055324165 1.5422255
0.075084515 -0.0055224509 1.5397786
0.064761043 -0.0055478676 1.5472488
0.054062277 -0.0055448185 1.5466549
0.043402307 -0.0055452273 1.5469874
0.032677393 -0.0055349031 1.5442479
0.12073947 -0.016578469 1.5799518
0.10758554 -0.016239297 1.5478178
0.096298203 -0.016138149 1.5385354
0.08591295 -0.01618184 1.5431498
0.075420842 -0.016214918 1.5466963
0.06451153 -0.016154423 1.5411799
0.05406139 -0.016207727 1.5465807
0.043484896 -0.016240032 1.5499119
0.03265591 -0.016168371 1.543174
0.10778801 -0.026973732 1.5506631
0.096975401 -0.02694352 1.5493664
0.086240374 -0.026930051 1.5489932
0.075418383 -0.026881773 1.5465492
0.064716458 -0.026867431 1.5460285
0.053817518 -0.026749507 1.5394388
0.043483481 -0.026923407 1.5497648
0.032717675 -0.026856182 1.5460263
0.10764548 -0.03762779 1.548448
0.09684699 -0.037585575 1.5471504
0.086181141 -0.037590757 1.5477748
0.075318277 -0.037499316 1.5443323
0.06479612 -0.037575316 1.5478065
0.054091576 -0.037554681 1.5472132
0.04353689 -0.037653502 1.5515431
0.032799866 -0.037607647 1.5498048
0.10756987 -0.048283566 1.5471575
0.096964404 -0.048321817 1.5488528
0.086175568 -0.048266836 1.5474819
0.07545805 -0.048241898 1.5470351
0.065123118 -0.048493635 1.5555029
0.054088071 -0.048220504 1.5469204
0.04370065 -0.0485324 1.5572444
0.032734908 -0.048196003 1.5465136
0.10817896 -0.059299666 1.5557641
0.097018421 -0.059045363 1.549484
0.08622364 -0.058978222 1.5481139
0.075548373 -0.058985412 1.5486658
0.064786673 -0.05891636 1.5471481
0.054049116 -0.058846351 1.5455564
0.04336397 -0.058813032 1.5448898
0.032690369 -0.058778763 1.5441504
0.10816851 -0.070035584 1.5553229
0.097441837 -0.070046365 1.5560244
0.086325318 -0.069744848 1.54967
0.075782098 -0.069886714 1.5532162
0.064987354 -0.069805183 1.5517005
0.054113019 -0.069589116 1.5471153
0.04363735 -0.069905519 1.5544384
0.032938477 -0.069954015 1.5556985
0.12171651 -0.027707798 1.5927625
0.12163517 -0.038677096 1.591539
0.12283453 -0.050154634 1.6071844
0.12365452 -0.061659686 1.6177652
0.11852435 0.11220739 1.5481042
0.10769858 0.11208357 1.5468861
0.096833058 0.11188653 1.5445979
0.086058728 0.11175909 1.5432305
0.075259298 0.11155838 1.5407922
0.064703971 0.111713 1.5432625
0.053980052 0.11158012 1.5416739
0.04333628 0.11158831 1.542006
0.03264856 0.11145183 1.540271
0.11861869 0.10158136 1.5498282
0.10799022 0.10166313 1.5515965
0.096724942 0.10109733 1.5433328
0.086402483 0.10149887 1.5499349
0.075030416 0.10060661 1.5365337
0.064631596 0.10094032 1.5419946
0.054023277 0.10101399 1.5433965
0.04339873 0.10108605 1.5447263
0.032611936 0.10070402 1.5389997
0.11848491 0.090763547 1.5484941
0.10690787 0.090027712 1.5363183
0.096800685 0.090503886 1.5449828
0.085974894 0.090342931 1.5426164
0.075426802 0.090469524 1.545161
0.064682312 0.090363465 1.5436444
0.054065645 0.090429373 1.5450472
0.043432754 0.09049385 1.5463777
0.032511976 0.089805126 1.5346603
0.11827376 0.079917632 1.5460892
0.10781372 0.080084115 1.5498489
0.096627638 0.079688534 1.5425737
0.086095944 0.079801485 1.5451908
0.07543648 0.079811208 1.5457422
0.064773388 0.079819642 1.5462204
0.053657711 0.0791637 1.5336506
0.043410577 0.079781651 1.5459603
0.032599907 0.07942915 1.5392309
0.118287 0.069241211 1.546598
0.10782579 0.069385447 1.5503584
0.096885771 0.069219425 1.5470693
0.086050585 0.069096416 1.5447015
0.075396739 0.069104835 1.5452522
0.064615093 0.068979584 1.5427361
0.053974934 0.068985768 1.5431404
0.043304428 0.06894666 1.5424739
0.032771096 0.069171615 1.5477271
0.11860014 0.058710855 1.5510198
0.10763022 0.058571395 1.5478045
0.096895099 0.058543049 1.5475054
0.085783735 0.058252193 1.5401477
0.075452223 0.058483519 1.5466857
0.064497121 0.058228087 1.5401751
0.053945567 0.058308072 1.5425763
0.043308601 0.058312368 1.542908
0.032606721 0.058203578 1.5401701
0.11898687 0.048153706 1.556367
0.10757019 0.047856487 1.5471708
0.09690284 0.047863845 1.5478683
0.086010732 0.047748249 1.5445009
0.07521718 0.047662415 1.5420564
0.064585105 0.047667466 1.5425335
0.053915303 0.04764118 1.5419387
0.043284312 0.047644697 1.5422704
0.032651223 0.047647435 1.5425293
0.11937174 0.037526112 1.5616432
0.10702784 0.036986817 1.5394818
0.096909061 0.037182342 1.5481584
0.086181343 0.037163738 1.547785
0.075414889 0.037120804 1.5463396
0.064465031 0.036958572 1.5398257
0.054126285 0.03715181 1.5482225
0.043287098 0.037012104 1.5425594
0.032527655 0.036871783 1.5368215
0.11915109 0.026693322 1.5588716
0.10730759 0.026427329 1.5436882
0.096418932 0.026363755 1.5403922
0.085745201 0.02635048 1.5400156
0.075177401 0.026370607 1.5415629
0.064799376 0.026474902 1.5480337
0.053955954 0.026392693 1.5434432
0.043261413 0.0263608 1.5417761
0.03267584 0.026396157 1.5440344
0.11919204 -0.098822922 1.9063729
0.10518508 -0.098016314 1.8911867
0.092547819 -0.09843839 1.89984
0.079176284 -0.098089874 1.8934419
0.066691518 -0.098919146 1.9099073
0.053513546 -0.098875143 1.909319
0.040430389 -0.099034689 1.9126347
0.027262006 -0.099038795 1.9128659
0.15333965 0.018802254 1.8421869
0.15391794 0.006121051 1.8492482
0.15391791 -0.0066310568 1.8492464
0.15407991 -0.019403564 1.8511506
0.14665554 0.11518602 1.7588266
0.14947203 0.10501436 1.7933991
0.14957336 0.092693388 1.7950686
0.14967231 0.080354355 1.7966545
0.14935766 0.067811146 1.7931765
0.14978085 0.055593926 1.7985778
0.15316296 0.044159703 1.8397644
0.15308802 0.031454749 1.8390259
0.15678954 -0.032734811 1.8838582
0.15694644 -0.045770589 1.885583
0.15767658 -0.05904704 1.8941917
0.15708818 -0.071841449 1.886773
0.17795707 0.10184541 1.9730564
0.17754877 0.074442841 1.9692839
0.17748521 0.04725701 1.9691187
0.17812274 0.020170024 1.9765501
0.11930561 0.16683392 1.5552648
0.10861502 0.16696732 1.5570344
0.097164869 0.16583382 1.5468208
0.086244173 0.16543497 1.5434756
0.075614408 0.16556032 1.5450208
0.065256722 0.16642083 1.5534488
0.054441825 0.16622482 1.5518698
0.043318972 0.16476117 1.538288
0.032823693 0.16550848 1.5455066
0.11850535 0.15500976 1.5454515
0.10795549 0.15523297 1.5482092
0.097249813 0.15525664 1.5489091
0.086539492 0.15527786 1.5495359
0.075680621 0.15500082 1.5471079
0.0646936 0.15432681 1.5406278
0.053971428 0.15414332 1.5390439
0.043357059 0.1542532 1.5403705
0.032685176 0.15416338 1.5396352
0.11845636 0.14424503 1.5454795
0.10763676 0.14408579 1.5442644
0.09696272 0.14410782 1.5449626
0.086229071 0.14403571 1.5445932
0.075360462 0.14368591 1.5411667
0.064790763 0.14388464 1.5436343
0.053983506 0.14353016 1.5400593
0.043339033 0.14354065 1.5403912
0.032671575 0.14345703 1.5396552
0.11840554 0.13348703 1.5454338
0.10752191 0.1332546 1.5432231
0.097168125 0.13369997 1.5488926
0.086411871 0.13363329 1.5485241
0.075809583 0.13381951 1.5510677
0.064928286 0.13349348 1.5475662
0.053994726 0.13291016 1.5410024
0.043375779 0.13300492 1.5423303
0.03255285 0.13233216 1.5346206
0.11820202 0.12257992 1.5433258
0.10788542 0.12299157 1.5490688
0.09669248 0.12238479 1.5418081
0.086318493 0.12279264 1.5474087
0.075390577 0.12241643 1.5429823
0.064651214 0.12227286 1.5414683
0.05403965 0.12236202 1.5428692
0.04324542 0.12197978 1.5382189
0.032684654 0.12222152 1.5414679
0.074743085 0.20292693 1.7806274
0.062089965 0.20182309 1.7711647
0.049708515 0.20127682 1.76658
0.03730914 0.20027849 1.7579361
0.024819104 0.19759376 1.7343034
0.10110518 0.20647012 1.8111895
0.088779792 0.20694363 1.8158065
0.14779443 0.18954915 1.7684797
0.1477475 0.17724808 1.7687398
0.14564458 0.1626586 1.7441053
0.14740008 0.15240708 1.7660265
0.14816786 0.14092523 1.7759668
0.12578329 0.20584998 1.8046825
0.14926234 0.12959984 1.7898092
0.055489711 0.27922109 1.9692868
0.11062116 0.26702613 1.9797734
0.11024681 0.23879983 1.9752994
0.083108045 0.23932935 1.9805857
0.055567618 0.23865415 1.9755778
0.041875228 0.23842975 1.973925
0.20592418 0.21152671 1.9728032
0.20494831 0.19692449 1.9643012
0.17777872 0.18335561 1.9672186
0.17754859 0.16953382 1.9654459
0.17731558 0.15574473 1.9635775
0.1242111 0.28046787 1.9761156
0.16564237 0.2536099 1.9807478
0.15116186 0.23869106 1.9726242
0.12413805 0.23924297 1.9784647
0.16409232 0.22404657 1.9642156
-0.40415707 0.0064816773 1.9361799
-0.40415695 -0.0070217308 1.9361781
-0.40271839 -0.033907425 1.9290445
-0.39641365 -0.046621278 1.8984202
-0.39598337 -0.059800982 1.8960994
-0.4423925 0.11749106 1.9807935
-0.40666139 0.088044338 1.9469738
-0.40527987 0.074204311 1.9406782
-0.40531129 0.060668081 1.9411383
-0.40553913 0.047152601 1.9424852
-0.40617877 0.020085057 1.9458814
-0.41271994 0.21346161 1.9699507
-0.45461309 0.17229192 1.9689114
-0.42757347 0.1448746 1.9770961
-0.40792894 0.12920707 1.9515946
-0.27894527 0.015921321 1.5447798
-0.29086182 0.015985012 1.5497223
-0.30153316 0.015978159 1.5477014
-0.31552443 0.01614162 1.5622771
-0.27912551 0.0051670298 1.5458361
-0.28922194 0.0051551205 1.5409461
-0.30040133 0.0051626759 1.5418823
-0.31513703 0.0052287141 1.5603887
-0.27859744 -0.0055869585 1.5428813
-0.28958729 -0.0055917013 1.5429109
-0.30059063 -0.0055963565 1.5428628
-0.31552914 -0.0056714201 1.5623485
-0.27806503 -0.016299959 1.5398536
-0.28976536 -0.016355086 1.5438191
-0.30020702 -0.016337765 1.5408242
-0.31473973 -0.016536586 1.5583504
-0.27840823 -0.027056996 1.5416746
-0.29048699 -0.027182559 1.5476029
-0.30000818 -0.027068373 1.5396943
-0.31551418 -0.027483396 1.562122
-0.27945086 -0.037935451 1.5473578
-0.29138669 -0.038086899 1.5522951
-0.30169857 -0.038022842 1.5483075
-0.31510714 -0.038339999 1.5599369
-0.28066501 -0.048924219 1.5539497
-0.28917626 -0.048536044 1.540206
-0.30149022 -0.048791084 1.5470297
-0.31822461 -0.049719118 1.57532
-0.27870747 -0.059331447 1.5427585
-0.29134551 -0.059718762 1.5516279
-0.30184534 -0.059655752 1.5486224
-0.31819972 -0.060714189 1.5749431
-0.27818283 0.11243182 1.5378859
-0.28824434 0.11217234 1.53301
-0.30014488 0.11262154 1.537863
-0.27840212 0.10178376 1.5395989
-0.2895672 0.10193457 1.5406063
-0.30189496 0.10246921 1.5474129
-0.2780894 0.090944804 1.5382912
-0.28851217 0.090849757 1.5353762
-0.30193719 0.091673054 1.5480752
-0.3180972 0.093241103 1.5733885
-0.27847597 0.080331706 1.5408415
-0.28982651 0.080501415 1.5428326
-0.30064943 0.080517679 1.5417997
-0.31833267 0.082306579 1.5749665
-0.27815452 0.069511846 1.5393859
-0.29004076 0.069790751 1.5443275
-0.30219695 0.070112325 1.5501598
-0.31836724 0.071310773 1.5754908
-0.27976415 0.059124883 1.5486767
-0.28951988 0.058914583 1.5418193
-0.3008996 0.059037972 1.5437326
-0.31839687 0.060311634 1.5759397
-0.27732244 0.04791382 1.5352682
-0.29027313 0.048289064 1.5461155
-0.30035481 0.048177242 1.5411545
-0.31567651 0.048884608 1.5625919
-0.27874762 0.037410043 1.5434318
-0.29065657 0.037559811 1.5483739
-0.3015098 0.03756731 1.5473361
-0.31569612 0.037975229 1.5628883
-0.27840865 0.026627623 1.5416818
-0.2890259 0.026616599 1.5397462
-0.30133444 0.026756544 1.546574
-0.31571075 0.027064074 1.5631101
-0.32094261 0.11626269 1.5866371
-0.32099232 0.1051852 1.5873924
-0.18026255 0.015758365 1.5380969
-0.19097908 0.015764059 1.5378234
-0.20208652 0.015799718 1.5404508
-0.21256079 0.015784776 1.5380453
-0.22386545 0.015829984 1.5415081
-0.23507808 0.015864855 1.5438997
-0.24539885 0.01583912 1.5402842
-0.2568191 0.015883537 1.5435071
-0.26727912 0.015867384 1.5407333
-0.18038063 0.0051141898 1.5391614
-0.19159223 0.0051291045 1.5428574
-0.20312008 0.0051504625 1.5484556
-0.21297081 0.0051292833 1.5410889
-0.22386895 0.0051341499 1.5415795
-0.23448545 0.0051324088 1.5400159
-0.24540268 0.0051371139 1.5403559
-0.25666052 0.0051482576 1.5425922
-0.26660612 0.0051332419 1.5368626
-0.18038057 -0.0055403039 1.5391601
-0.19122608 -0.0055458439 1.5398785
-0.20221843 -0.0055548316 1.5415125
-0.21283516 -0.005553118 1.5400966
-0.22372654 -0.0055583911 1.5405881
-0.23448539 -0.0055600409 1.5400145
-0.2452468 -0.0055616046 1.5393665
-0.25666043 -0.0055772103 1.5425907
-0.2676217 -0.0055821287 1.5427748
-0.18037765 -0.016194534 1.5390859
-0.19134499 -0.016221071 1.5407965
-0.20195752 -0.016216313 1.5394548
-0.21323837 -0.016263006 1.5429945
-0.22386524 -0.016257739 1.5415037
-0.23477972 -0.016272889 1.5419177
-0.24508701 -0.016246468 1.5383043
-0.25616872 -0.016271442 1.5395561
-0.26727885 -0.016296152 1.5407289
-0.18037182 -0.026847985 1.538939
-0.19146089 -0.026909137 1.541642
-0.20259506 -0.026969831 1.5442656
-0.21309601 -0.026944367 1.5418564
-0.22414273 -0.02698705 1.5433356
-0.23462316 -0.026960768 1.5407814
-0.24616984 -0.027053958 1.5450706
-0.25697321 -0.027061082 1.5443414
-0.26760891 -0.027050685 1.542552
-0.18047839 -0.037524123 1.5397127
-0.19181773 -0.037657432 1.5443985
-0.20168379 -0.03750271 1.5371053
-0.21295024 -0.037610844 1.5406458
-0.22427428 -0.037718333 1.5441043
-0.23520823 -0.037753403 1.5445154
-0.24631393 -0.037811786 1.545837
-0.25696099 -0.037797824 1.5441202
-0.26776546 -0.037807204 1.5433162
-0.18046682 -0.048181303 1.5394202
-0.19192748 -0.048383247 1.5450972
-0.20270115 -0.048399821 1.5447427
-0.21388546 -0.048507858 1.5472848
-0.22440231 -0.048461434 1.5447999
-0.23549135 -0.048537169 1.5461978
-0.24583094 -0.048458576 1.5425804
-0.25791988 -0.048716962 1.5497431
-0.26774856 -0.048544828 1.5430216
-0.18068285 -0.058911324 1.5410403
-0.19105814 -0.058819871 1.537788
-0.20268501 -0.059103046 1.5443763
-0.21332633 -0.059084829 1.5429572
-0.22481135 -0.059290871 1.5474001
-0.23532362 -0.059233274 1.544842
-0.24612302 -0.059249818 1.5441873
-0.25773701 -0.05945288 1.5483881
-0.26823512 -0.059392583 1.5456082
-0.18458302 -0.071085684 1.5743419
-0.19750543 -0.071820118 1.5899019
-0.20910355 -0.072020844 1.5934706
-0.22292778 -0.072929673 1.612792
-0.23716763 -0.073881134 1.6329877
-0.24856399 -0.073900431 1.6323192
-0.2612083 -0.074272886 1.6394662
-0.1805689 0.11177569 1.5381522
-0.1913036 0.11181608 1.5378743
-0.20204283 0.11185469 1.5375222
-0.21251521 0.11174911 1.5351193
-0.22353292 0.11192669 1.5365952
-0.23428284 0.11196008 1.5360203
-0.24487966 0.1119206 1.5343862
-0.25627717 0.11223507 1.5376
-0.26908314 0.11311641 1.5485948
-0.18071268 0.10119058 1.5398698
-0.19108996 0.10103364 1.5366198
-0.20207475 0.10119752 1.5382489
-0.21214232 0.10090866 1.5328794
-0.22328369 0.10113376 1.535347
-0.23461756 0.10142158 1.5387213
-0.24507378 0.10132142 1.536099
-0.25680459 0.10173456 1.541283
-0.26777196 0.10182425 1.5414619
-0.18016252 0.090240911 1.5355654
-0.19099525 0.090331294 1.5362818
-0.20184603 0.090420224 1.5369228
-0.21271442 0.090507708 1.537488
-0.22303085 0.090363227 1.5340242
-0.23375691 0.090390295 1.5334541
-0.24495266 0.090588719 1.5357676
-0.25635344 0.090843201 1.5389855
-0.26713291 0.09086594 1.5381844
-0.18007018 0.079558507 1.5351529
-0.19089746 0.079638235 1.5358708
-0.20200031 0.079818428 1.5384939
-0.21192823 0.079539575 1.532132
-0.22348574 0.079869747 1.53757
-0.23453128 0.0799952 1.5389718
-0.24451621 0.07976371 1.5333897
-0.25589812 0.079988249 1.5366125
-0.26750472 0.080262177 1.5407362
-0.18020542 0.0689741 1.5366518
-0.19140661 0.069175415 1.5403438
-0.20150766 0.068978876 1.5350391
-0.21276477 0.06917794 1.5385771
-0.22322586 0.069111526 1.5361007
-0.23425911 0.069220223 1.5375053
-0.24501035 0.069239758 1.5368578
-0.25673872 0.069522247 1.5420506
-0.26736483 0.069495574 1.5402627
-0.18010733 0.058298204 1.5360932
-0.1914248 0.058505766 1.5407795
-0.20204183 0.058488637 1.5394373
-0.21319154 0.058619674 1.5419831
-0.22310472 0.058414452 1.5355469
-0.23353606 0.058357421 1.5330006
-0.24643542 0.058895197 1.5461777
-0.25611278 0.058650181 1.5385439
-0.26738989 0.058776464 1.5407001
-0.18035209 0.047724623 1.5384405
-0.19046386 0.047589436 1.5332057
-0.20141394 0.04766693 1.5348438
-0.21253067 0.047774106 1.537395
-0.22468758 0.048093691 1.5467919
-0.23489586 0.047986045 1.5422575
-0.24458534 0.047786441 1.534695
-0.25645792 0.048012208 1.5408802
-0.26741081 0.048054606 1.5410646
-0.18036355 0.037074167 1.5387298
-0.19096401 0.037063874 1.5374633
-0.20194182 0.037124041 1.5390984
-0.21159521 0.036946911 1.5307511
-0.2239902 0.037242543 1.5421356
-0.23535779 0.037348188 1.5455142
-0.24413332 0.037051227 1.532022
-0.2571241 0.037392087 1.5451169
-0.26691976 0.037259586 1.5383999
-0.18048736 0.026438817 1.5399395
-0.19085103 0.02639772 1.5366873
-0.20169379 0.026423728 1.5373322
-0.21296078 0.02649992 1.5408732
-0.22314686 0.026440749 1.5364152
-0.23521979 0.026600355 1.5447435
-0.24585861 0.026590932 1.5431026
-0.25664854 0.026597958 1.5423754
-0.266763 0.026537223 1.5376321
-0.080125898 0.065474905 1.4629831
-0.079977803 0.045182943 1.4607446
-0.079658449 0.034957331 1.455029
-0.089630581 0.034928855 1.4534533
-0.080852069 0.025285413 1.4771979
-0.090670079 0.025180519 1.4706236
-0.070738912 0.066145502 1.4784638
-0.069049969 0.044638388 1.4432845
-0.068959869 0.034629222 1.4415578
-0.068821378 0.024628744 1.438764
-0.083721057 0.015625145 1.5302553
-0.093047865 0.015421177 1.5096861
-0.10473824 0.015610565 1.5279713
-0.11511754 0.015587767 1.5252264
-0.1266838 0.015716042 1.5373615
-0.13780402 0.015773421 1.5424374
-0.14861956 0.015790194 1.5434518
-0.15904841 0.015766382 1.5404118
-0.16987647 0.015782652 1.5412787
-0.082370274 0.0049858736 1.5053626
-0.092866652 0.0049917432 1.5067617
-0.10433367 0.0050433502 1.5220557
-0.11556643 0.0050752265 1.5312802
-0.12481558 0.0050219488 1.5145087
-0.13745372 0.0051027215 1.5385242
-0.14824226 0.0051081642 1.5395411
-0.15793225 0.005077559 1.5295403
-0.1699876 0.0051220693 1.5423442
-0.082316168 -0.0053977496 1.5043627
-0.093962759 -0.0054714833 1.5247266
-0.10528149 -0.0055131987 1.5360221
-0.11593895 -0.0055158189 1.5362648
-0.12611654 -0.0054970845 1.530454
-0.13692501 -0.0055066193 1.532546
-0.14843203 -0.0055408613 1.5415306
-0.15884747 -0.0055324985 1.5384921
-0.16977058 -0.0055417577 1.5403546
-0.083829157 -0.016068103 1.5322481
-0.093656734 -0.01594154 1.519663
-0.10412881 -0.01593912 1.5189881
-0.11340372 -0.015770657 1.5022871
-0.12595186 -0.01604748 1.5283874
-0.13753954 -0.016168574 1.5394448
-0.14890411 -0.016247941 1.5464337
-0.15904826 -0.016192421 1.5404077
-0.16976784 -0.016198782 1.5402805
-0.094079934 -0.026548836 1.5265043
-0.10358381 -0.026287097 1.5108632
-0.11593328 -0.026729323 1.5360448
-0.12643564 -0.026707243 1.5342212
-0.13753508 -0.026804946 1.5392982
-0.1480452 -0.026782012 1.5373282
-0.15934819 -0.026895978 1.5432448
-0.1699793 -0.02688935 1.5421215
-0.083876424 -0.037231363 1.5328828
-0.093892701 -0.037010301 1.5232937
-0.10527125 -0.037316661 1.5355837
-0.11518262 -0.037094459 1.5258569
-0.12602298 -0.037183609 1.5290207
-0.13761653 -0.037464015 1.5400748
-0.14898701 -0.037647791 1.5470612
-0.15923882 -0.037543207 1.5420303
-0.17018804 -0.037605859 1.5438892
-0.084249526 -0.04802113 1.539579
-0.095104352 -0.048137892 1.5429586
-0.10587368 -0.04819221 1.5442678
-0.11659068 -0.04821495 1.544506
-0.12715307 -0.048175309 1.5426781
-0.13822433 -0.04831969 1.5467525
-0.14850295 -0.048186135 1.5417929
-0.15963529 -0.048328936 1.5457151
-0.17039405 -0.048347801 1.5455834
-0.084242716 -0.05864054 1.5392152
-0.094853148 -0.058632597 1.5386044
-0.10579747 -0.058811843 1.5429059
-0.11635778 -0.058764372 1.5411509
-0.12706153 -0.058791209 1.5413169
-0.13803704 -0.058929928 1.5443954
-0.14858593 -0.058879673 1.5424227
-0.15962251 -0.059016459 1.545349
-0.17005503 -0.058926754 1.5422369
-0.14084236 -0.071020238 1.575801
-0.15179731 -0.071049385 1.5757973
-0.16113205 -0.070367076 1.5598174
-0.17361735 -0.07105992 1.5745713
-0.086937852 -0.071479753 1.5886564
-0.097765997 -0.071381181 1.5860314
-0.10883293 -0.071459241 1.5873203
-0.11940046 -0.071225122 1.5815593
-0.13078839 -0.07147862 1.5866818
-0.084080972 0.11111838 1.5343479
-0.094549395 0.11096056 1.5317472
-0.1054596 0.11130077 1.5360419
-0.11695386 0.11213876 1.5472221
-0.12689963 0.11147596 1.5374403
-0.13706918 0.11109708 1.5315707
-0.14811254 0.11142997 1.5355641
-0.15901349 0.11161834 1.5374942
-0.17016441 0.11194747 1.5413312
-0.083770156 0.10014391 1.5290912
-0.094747074 0.10058257 1.5354561
-0.10547643 0.10069656 1.5367649
-0.11645132 0.10100263 1.5409846
-0.12700114 0.10091962 1.5391594
-0.13753127 0.10083502 1.5372627
-0.14851545 0.10107155 1.5402616
-0.15893716 0.10091927 1.5372268
-0.1704082 0.10141055 1.5440425
-0.084214665 0.090055548 1.5377136
-0.094456412 0.089696594 1.5311239
-0.1051533 0.089798599 1.5324357
-0.11579788 0.089841366 1.5326777
-0.12669431 0.090055987 1.5358317
-0.13746294 0.090153597 1.53692
-0.14768305 0.089903288 1.5319705
-0.15885825 0.09022896 1.5368859
-0.17010731 0.090553075 1.5417206
-0.085739143 0.080873758 1.5662144
-0.094529383 0.079180285 1.5326967
-0.10516676 0.079219289 1.5330123
-0.11581267 0.079257004 1.5332544
-0.12671049 0.079446331 1.5364097
-0.13730432 0.079430521 1.5355091
-0.14827107 0.079617225 1.5385129
-0.15969168 0.080006309 1.5454134
-0.16947836 0.079579316 1.5363452
-0.094600864 0.068646565 1.5341982
-0.10578766 0.069033675 1.542487
-0.11642153 0.069022119 1.541729
-0.1269685 0.068965316 1.5399027
-0.13740773 0.06886331 1.53701
-0.14790812 0.068804383 1.5350418
-0.15970947 0.069318004 1.5459229
-0.17036475 0.06930095 1.5447969
-0.086135507 0.059523687 1.5741554
-0.094731718 0.058133267 1.5366253
-0.10559475 0.058273874 1.5399307
-0.1164327 0.058376171 1.5421637
-0.12698069 0.058328114 1.5403371
-0.13768518 0.058353838 1.5404298
-0.1477325 0.058117338 1.5334854
-0.15880968 0.058290519 1.5374122
-0.16929646 0.05823886 1.5352992
-0.092364736 0.046337545 1.4980763
-0.10506166 0.047399446 1.5323142
-0.115995 0.047544185 1.536545
