ply
format ascii 1.0
comment PCL generated
element vertex 1394
property float x
property float y
property float z
element camera 0
property float view_px
property float view_py
property float view_pz
property float x_axisx
property float x_axisy
property float x_axisz
property float y_axisx
property float y_axisy
property float y_axisz
property float z_axisx
property float z_axisy
property float z_axisz
property float focal
property float scalex
property float scaley
property float centerx
property float centery
property int viewportx
property int viewporty
property float k1
property float k2
end_header
0.048649818 0.017690882 1.735835
0.084536418 0.0057394258 1.7355511
0.07250423 0.0057334853 1.7340888
0.060668763 0.0057438249 1.7375411
0.048650589 0.0057376986 1.7359149
0.084439933 -0.0062105404 1.7335516
0.073042512 -0.0062573133 1.747076
0.060530379 -0.0062082103 1.7335418
0.048706107 -0.006222859 1.7379125
0.084438555 -0.018153658 1.7334687
0.072503008 -0.01815558 1.7340039
0.060598563 -0.018167585 1.7354574
0.048677538 -0.018179294 1.7368296
0.084676906 -0.030181838 1.7382973
0.072666273 -0.030167846 1.7378354
0.060631175 -0.030136174 1.7362919
0.048703719 -0.030155592 1.7376645
0.084962107 -0.042300764 1.7440419
0.072621338 -0.042113166 1.7365899
0.060420703 -0.041948866 1.7300509
0.048701342 -0.042120054 1.7374177
0.084474444 -0.054006264 1.7337286
0.073030628 -0.054381926 1.7462482
0.060416788 -0.053862672 1.7297239
0.048725948 -0.054113317 1.7380886
0.084708668 -0.066137441 1.73831
0.072652146 -0.066069148 1.7368505
0.060377322 -0.065736234 1.7283173
0.048749767 -0.066117592 1.7386774
0.085037924 -0.078422502 1.744803
0.072893463 -0.078297406 1.7423478
0.060786381 -0.078171037 1.7398089
0.048745032 -0.078087844 1.7381854
0.084683344 0.17343922 1.7329788
0.072671786 0.17335881 1.7325214
0.060739439 0.17347287 1.7339709
0.048707385 0.17328829 1.732355
0.084894881 0.1618647 1.7380997
0.072646692 0.16133077 1.7326685
0.060511265 0.16088602 1.7281475
0.048718289 0.16135696 1.7334965
0.085105166 0.15022813 1.743144
0.072703138 0.14947869 1.7347239
0.060385656 0.14864169 1.7252215
0.048645217 0.14916281 1.7315687
0.084687948 0.13751315 1.7351662
0.072593011 0.13729294 1.732715
0.060708225 0.13746168 1.7351621
0.048654564 0.13723703 1.7325457
0.084413759 0.12512822 1.7300857
0.072481684 0.12514141 1.730621
0.060580686 0.12522404 1.7320716
0.048635405 0.12523323 1.7324443
0.08452367 0.1133359 1.7328926
0.072493315 0.1132186 1.7314343
0.060555842 0.11322873 1.7318882
0.048504464 0.11297853 1.7282705
0.084487654 0.10133743 1.7326277
0.072586544 0.10140596 1.7341611
0.060633723 0.10141504 1.7346156
0.048733491 0.10153814 1.7369844
0.084546708 0.089449748 1.7342763
0.072595865 0.089459196 1.7348123
0.060295776 0.088957146 1.7252858
0.048600972 0.089320764 1.7326447
0.08465261 0.07758829 1.7368413
0.072604015 0.077508129 1.735382
0.060475439 0.077294111 1.7308441
0.048634201 0.077432401 1.7342123
0.084564343 0.065546386 1.7353338
0.072321221 0.065291695 1.7288809
0.060412116 0.065297566 1.7293338
0.048444558 0.065227613 1.7277074
0.084522896 0.05355911 1.7347417
0.07253404 0.053534232 1.7342792
0.060693622 0.053630706 1.7377298
0.048559502 0.0534513 1.7321084
0.08452832 0.041606627 1.7350664
0.072538689 0.041587293 1.7346035
0.060628358 0.041614775 1.736057
0.048645925 0.041594103 1.7354305
-0.12267757 0.2530148 1.7807229
-0.12264883 0.24060412 1.7814183
-0.12295573 0.22882402 1.7869767
-0.12245049 0.21555233 1.7805712
-0.12153767 0.20170605 1.7681202
-0.12150097 0.1894094 1.7684623
0.036781017 0.26932821 1.7265179
0.024730895 0.26857531 1.7217873
0.012798457 0.26888752 1.7238917
0.00083727855 0.2688899 1.7239382
-0.011111299 0.26858255 1.7219267
-0.023110865 0.26918757 1.7257627
-0.035064138 0.26902446 1.7245761
-0.047162402 0.26977372 1.7292358
-0.05899138 0.26899111 1.7239344
-0.070951104 0.26896808 1.7234914
-0.082766227 0.26848266 1.7200052
-0.094428986 0.26768771 1.7144657
-0.1075357 0.27070579 1.7335092
0.036731191 0.25699878 1.7253476
0.024767635 0.25700924 1.7255574
0.012788358 0.25672358 1.723707
0.00084042508 0.25789416 1.7316679
-0.011153096 0.25760031 1.7296538
-0.023092654 0.2570104 1.7255802
-0.035096247 0.25729254 1.72736
-0.047045209 0.25713256 1.7260907
-0.059078891 0.25740656 1.7277066
-0.070895113 0.2568005 1.7233089
-0.082700744 0.25633651 1.71982
-0.094838902 0.25689024 1.7231662
-0.10757296 0.25875333 1.7353152
0.036764268 0.24525492 1.7280504
0.024747711 0.24484709 1.7252898
0.012778055 0.24457462 1.7234375
0.00083737198 0.24499466 1.7264546
-0.01115048 0.24555011 1.7303805
-0.02315283 0.24568385 1.7312537
-0.035028204 0.24483871 1.7251145
-0.046980664 0.24482542 1.7248347
-0.059098497 0.2455045 1.7294219
-0.070878334 0.2447872 1.7240307
-0.082869515 0.24490151 1.7244958
-0.094816446 0.24487276 1.7238897
-0.10688026 0.24511848 1.7251786
0.036713276 0.23295601 1.7267102
0.024755558 0.2329655 1.7269198
0.012811222 0.23323636 1.7290301
0.00084001856 0.23376857 1.7330414
-0.011122382 0.23297182 1.7270594
-0.023081396 0.23296656 1.7269427
-0.035059236 0.23309003 1.7277352
-0.047022283 0.23307736 1.7274551
-0.059050161 0.23332597 1.729075
-0.070900775 0.23290843 1.7256603
-0.082942851 0.2331496 1.7271156
-0.094361134 0.23179762 1.716612
-0.10679264 0.23295861 1.7248318
0.036745239 0.22118969 1.7292507
0.024720768 0.22069569 1.7254925
0.012800525 0.22107847 1.7285964
0.00083646126 0.22082898 1.7266591
-0.011125737 0.22107896 1.728608
-0.023101492 0.22119972 1.7294832
-0.035089754 0.22131689 1.7302767
-0.047009725 0.22105332 1.728013
-0.05893378 0.22091204 1.7266599
-0.070922129 0.22101872 1.7272087
-0.082826398 0.22087042 1.7256929
-0.094874971 0.2210958 1.7270685
-0.10706766 0.22156891 1.7303412
0.036567688 0.20820962 1.7217849
0.024840564 0.20976491 1.7349002
0.01278234 0.20881827 1.7270857
0.00083670078 0.20893915 1.7281252
-0.011116261 0.20893772 1.7280898
-0.023055559 0.20881401 1.7269807
-0.03505991 0.20916285 1.7297606
-0.047023173 0.2091514 1.7294806
-0.058849994 0.20866081 1.7251496
-0.070780985 0.20864277 1.7247074
-0.082520001 0.20814568 1.7202168
-0.094740205 0.20883466 1.7255619
-0.10740194 0.2102336 1.7367672
0.036807507 0.19758567 1.734093
0.024776822 0.19725715 1.7313225
0.012793088 0.19703768 1.7294633
0.00083645078 0.19692726 1.7285162
-0.011220586 0.19883345 1.7453735
-0.023061801 0.19692142 1.7283647
-0.035009556 0.19691378 1.7281665
-0.046982389 0.1970152 1.7288802
-0.059033714 0.19733785 1.7314982
-0.070961587 0.1972086 1.7300619
-0.08329697 0.19808573 1.7374774
-0.095251501 0.19795015 1.7358761
-0.10658024 0.19669007 1.7242751
0.036858708 0.18585443 1.7373887
0.02481134 0.1855458 1.7346163
0.012796353 0.18512876 1.7307671
0.00083714101 0.18513043 1.7308136
-0.011179116 0.18607801 1.7397283
-0.023041395 0.18480867 1.7276787
-0.034998532 0.1849069 1.7284751
-0.046967611 0.18500218 1.7291895
-0.058880918 0.18488368 1.7278346
-0.070939295 0.18518387 1.7303729
-0.082799219 0.18495411 1.7278616
-0.094573982 0.18461606 1.724277
-0.10630345 0.1842752 1.7206136
0.085061334 0.27046379 1.7327577
0.072790138 0.26957542 1.7273722
0.060734794 0.26929361 1.7258526
0.048703752 0.26900756 1.7242506
0.085090823 0.25852215 1.7345619
0.07318671 0.25898698 1.7380669
0.060997114 0.25842574 1.73457
0.048775997 0.2574223 1.7280229
0.08507099 0.2464292 1.7352958
0.073004648 0.24631558 1.7348456
0.061086316 0.24675505 1.7382716
0.048570797 0.24440548 1.7218196
0.084761359 0.2335434 1.7300059
0.072862625 0.23383269 1.7325238
0.060967725 0.23425084 1.7359519
0.048835341 0.23373781 1.7323635
0.084883071 0.22187267 1.7335404
0.072925873 0.22202154 1.7350698
0.060744643 0.22141251 1.7305686
0.048600834 0.22067416 1.7249924
0.084859215 0.20980757 1.7340215
0.072574966 0.20899686 1.7276154
0.060554989 0.20877744 1.7260849
0.048753247 0.2093875 1.73142
0.084737785 0.19752181 1.7324345
0.072635904 0.19720595 1.7299931
0.060709421 0.19733565 1.7314411
0.048821852 0.1976866 1.7347944
0.084759369 0.18558352 1.7337414
0.072654411 0.18528679 1.731298
0.06082847 0.18572488 1.7357283
0.048640303 0.18500055 1.7291441
-0.12050945 0.030097058 1.7602608
-0.12064871 0.017981917 1.7624201
-0.11970274 0.0057862708 1.7485336
-0.12058286 -0.0063144742 1.761502
-0.12058089 -0.018457461 1.7614175
-0.11983225 -0.030410564 1.750277
-0.11989413 -0.042500198 1.7510259
-0.12056332 -0.054878723 1.7606667
-0.11987673 -0.066638373 1.7502812
-0.12074498 -0.079280652 1.7627425
-0.12139479 0.17701881 1.7677275
-0.12142185 0.16483049 1.7688935
-0.12144701 0.15263435 1.7699766
-0.12201133 0.14105643 1.7789333
-0.12128869 0.12800661 1.7689073
-0.12117273 0.11568155 1.7677478
-0.12125786 0.10355154 1.7694917
-0.11978453 0.090230465 1.7482356
-0.12101622 0.078971341 1.7667511
-0.12089246 0.066716112 1.7652543
-0.12056367 0.054393306 1.7606819
-0.12104528 0.042420734 1.7679935
0.036592752 0.029560313 1.7309666
0.024730807 0.02962923 1.7351747
0.012754671 0.029562293 1.7313033
0.00083345908 0.029528722 1.72935
-0.011079539 0.029545438 1.7303149
-0.023005644 0.029561676 1.7311983
-0.03480434 0.029458988 1.7250028
-0.046841245 0.02955888 1.7307218
-0.058621403 0.029489093 1.7263643
-0.070667773 0.029554177 1.7299199
-0.0825762 0.029551109 1.7293971
-0.094859213 0.029665964 1.7357818
-0.10668501 0.029628119 1.7330978
0.036782444 0.017732294 1.7401252
0.024802217 0.017733032 1.7403351
0.01281349 0.017723385 1.7394638
0.00083444099 0.017642755 1.7315105
-0.011073546 0.017622434 1.7294757
-0.023006381 0.017642224 1.7313595
-0.034925405 0.017641533 1.7311617
-0.046708673 0.017590066 1.7258848
-0.058757812 0.017639294 1.7305225
-0.071034111 0.017728612 1.7390732
-0.082673378 0.017656108 1.7315558
-0.094537735 0.017643899 1.7299523
-0.10650571 0.017651597 1.7302647
0.036783025 0.0057511297 1.7402053
0.024689615 0.0057251663 1.732416
0.012755282 0.0057220371 1.7315441
0.00083493185 0.0057253642 1.7325903
-0.011086413 0.0057220492 1.7315553
-0.022980405 0.0057153674 1.7294394
-0.034885973 0.0057151425 1.7292418
-0.046763044 0.0057115513 1.7279636
-0.058624197 0.0057078674 1.7266043
-0.07083296 0.0057335631 1.7341572
-0.082391061 0.0057067755 1.7256421
-0.094539225 0.0057224603 1.7300321
-0.10632471 0.0057151369 1.7273502
0.036720175 -0.0062196697 1.7372043
0.024746103 -0.0062163798 1.7364141
0.012755278 -0.0061987969 1.7315425
0.00083588687 -0.0062094987 1.7345889
-0.011111795 -0.0062130038 1.7355537
-0.023006737 -0.0061986679 1.7314376
-0.034885962 -0.0061913272 1.7292401
-0.04695072 -0.0062122717 1.7349594
-0.058624178 -0.0061834464 1.7266027
-0.070549764 -0.0061864527 1.7271614
-0.082580112 -0.0061964509 1.7296361
-0.094431035 -0.0061921626 1.7280334
-0.10717722 -0.0062409658 1.7413226
0.036677673 -0.0181596 1.7351216
0.024646828 -0.018098127 1.7293321
0.012762369 -0.018129701 1.7324594
0.00083682837 -0.018171355 1.7365056
-0.011092573 -0.018129744 1.7324709
-0.023006357 -0.01811895 1.7313544
-0.034985349 -0.018149354 1.7341561
-0.046842694 -0.018117236 1.7308779
-0.058320519 -0.017981134 1.7175257
-0.070831768 -0.018155828 1.7340724
-0.082531482 -0.018102106 1.7285542
-0.094699904 -0.018151773 1.7329432
-0.10644472 -0.018118212 1.7292619
0.036634583 -0.030071359 1.7329576
0.024702519 -0.030072611 1.7331669
0.012761951 -0.030056179 1.732295
0.00083489058 -0.030056456 1.7323414
-0.011085866 -0.030039053 1.7313066
-0.0229661 -0.029986773 1.7281909
-0.034924239 -0.030037183 1.7309928
-0.046948422 -0.030104285 1.7347116
-0.058587682 -0.029947411 1.7253569
-0.070465401 -0.029944785 1.7249166
-0.082670607 -0.030061997 1.7313864
-0.094480492 -0.030024026 1.7287849
-0.10668482 -0.030105865 1.7330894
0.03667469 -0.04205044 1.7347108
0.024715435 -0.042028166 1.7339206
0.012797832 -0.042101283 1.7370476
0.00083580508 -0.042029619 1.734095
-0.011110704 -0.042053338 1.7350594
-0.023030821 -0.042004343 1.7329438
-0.034882549 -0.041906632 1.7287478
-0.046838883 -0.041952338 1.730468
-0.058786601 -0.041973352 1.731107
-0.070704661 -0.041969672 1.730665
-0.0822412 -0.041773267 1.7221533
-0.094475895 -0.041936297 1.7285393
-0.10643608 -0.04195461 1.728852
0.036630422 -0.053931419 1.7323843
0.024727954 -0.053995334 1.7345924
0.012767801 -0.053935025 1.7327217
0.00083670591 -0.05402803 1.7357664
-0.011103639 -0.053965986 1.7337326
-0.023042491 -0.053964738 1.7336159
-0.034980226 -0.053962618 1.733418
-0.046809036 -0.053836301 1.7291421
-0.058917306 -0.054017443 1.7347757
-0.070821419 -0.053981885 1.7333341
-0.082613967 -0.053883813 1.729815
-0.094523855 -0.053877365 1.7292106
-0.10636831 -0.05383924 1.7275274
0.03666934 -0.065933131 1.733974
0.024740072 -0.06597352 1.7351825
0.012803264 -0.066050507 1.7373091
0.00083616056 -0.065938145 1.7343578
-0.011102741 -0.065900028 1.7333235
-0.022922132 -0.065559603 1.7242143
-0.034977399 -0.065895922 1.7330091
-0.046778437 -0.06570401 1.7277349
-0.058744404 -0.065774612 1.7293726
-0.070856139 -0.065957107 1.7339237
-0.082607292 -0.065799706 1.7294068
-0.094462149 -0.065754183 1.7278045
-0.10690766 -0.066083983 1.7360965
0.037021756 -0.078625999 1.7504628
0.024794148 -0.078095578 1.7386873
0.012875007 -0.078453355 1.7468075
0.00083989929 -0.0782317 1.7418592
-0.011196818 -0.078498006 1.747818
-0.02326219 -0.07858514 1.7496983
-0.03511389 -0.078137331 1.7395102
-0.04728318 -0.07844431 1.7462204
-0.05890682 -0.077905111 1.7338755
-0.071577169 -0.078698628 1.7514002
-0.083780624 -0.078823857 1.7538645
-0.095858715 -0.078814432 1.7532517
-0.10738432 -0.078403734 1.7435819
0.036637511 0.17280501 1.7276721
0.024845487 0.1737985 1.7378316
0.012813997 0.17340831 1.7339796
0.00083448045 0.17262074 1.7260652
-0.011086764 0.17261958 1.7260302
-0.023060065 0.17301017 1.729894
-0.035026874 0.17310207 1.730691
-0.047005627 0.17319122 1.731406
-0.058760703 0.1725872 1.7250773
-0.070915885 0.17316392 1.7306015
-0.082960583 0.17334333 1.7320648
-0.094596595 0.17273124 1.7254963
-0.1066936 0.17300375 1.72779
0.036708459 0.16118251 1.7317971
0.02478053 0.16137284 1.7339981
0.012773124 0.16091767 1.7291478
0.00083419052 0.16064358 1.7262068
-0.011095582 0.16082615 1.728163
-0.023091529 0.16128172 1.7330253
-0.03505468 0.16127542 1.7328267
-0.046935827 0.16099107 1.7295609
-0.058773849 0.16070415 1.7262141
-0.070931733 0.16124114 1.7317423
-0.08260151 0.16067366 1.7252495
-0.094779722 0.1611136 1.7296171
-0.10659578 0.1609083 1.7269416
0.036653336 0.14900126 1.7298676
0.024771579 0.14934759 1.7340618
0.012746613 0.14867094 1.7262195
0.00083579525 0.14901252 1.7302514
-0.011135921 0.14943674 1.735198
-0.023070026 0.14917818 1.7320923
-0.035022039 0.14917235 1.7318941
-0.046972368 0.14916414 1.7316144
-0.058987617 0.14932363 1.7332448
-0.070704065 0.14880048 1.7268282
-0.082524247 0.14861511 1.7243148
-0.094583325 0.14885248 1.726696
-0.10673952 0.14917238 1.7299879
0.036744077 0.1374014 1.7348305
0.024748124 0.13725057 1.7330468
0.012792825 0.13725403 1.7331747
0.0008340475 0.13678578 1.7272398
-0.011119044 0.13725434 1.7331861
-0.023048153 0.13709468 1.7310758
-0.035068713 0.13740233 1.7348648
-0.047061753 0.13747302 1.7355814
-0.058830958 0.1369938 1.7292409
-0.070798457 0.13706009 1.7297951
-0.082776181 0.1371242 1.7302672
-0.09443938 0.13671681 1.7246844
-0.10645583 0.13685477 1.7259897
0.036750559 0.12545475 1.7357272
0.024738379 0.12524562 1.7329451
0.012780494 0.12517732 1.7320758
0.00083562627 0.12510702 1.7311246
-0.011095645 0.12503469 1.7300922
-0.023052219 0.12517473 1.7319703
-0.035054922 0.12538417 1.7347641
-0.046882518 0.12502006 1.7294987
-0.058807723 0.12501116 1.7291384
-0.070649266 0.12485738 1.7267029
-0.082932435 0.12541588 1.734151
-0.094726183 0.12518671 1.7305564
-0.10665707 0.1251698 1.7298696
0.036693659 0.11330818 1.7335491
0.024742348 0.11331288 1.7337589
0.012746065 0.1129279 1.7278996
0.00083385123 0.11292894 1.7279459
-0.011116451 0.113316 1.7338983
-0.022990121 0.11292554 1.7277949
-0.03498064 0.11317967 1.731588
-0.046863243 0.11304417 1.7293136
-0.058985204 0.11342389 1.7349373
-0.071064822 0.11360787 1.7374852
-0.082567833 0.11294997 1.7269915
-0.094363026 0.11280727 1.7243947
-0.10667413 0.11324421 1.7306826
0.0367199 0.10142833 1.7352799
0.024661228 0.10102773 1.728502
0.012747909 0.10103028 1.7286297
0.00083540386 0.1012047 1.7316709
-0.011073663 0.10097268 1.7276428
-0.023059253 0.10131733 1.733516
-0.035045639 0.10142902 1.7353141
-0.046896812 0.10119212 1.7310421
-0.058926489 0.10135836 1.7336749
-0.070792079 0.10123388 1.7312369
-0.082815968 0.10133903 1.7327077
-0.094863117 0.10144255 1.7340957
-0.10662863 0.10125543 1.7304182
0.036536183 0.089019828 1.7269449
0.024706753 0.089278594 1.7321465
0.012749546 0.089127794 1.7292783
0.00083789858 0.089536764 1.7373145
-0.011125831 0.089485116 1.7362804
-0.023128036 0.089636117 1.7391597
-0.034950227 0.08922448 1.7309729
-0.046876039 0.089219548 1.7306937
-0.058833208 0.089264199 1.7313315
-0.0707203 0.089205384 1.7298914
-0.082590349 0.089145161 1.7283707
-0.094496861 0.089134507 1.7277664
-0.10664229 0.089326374 1.7310685
0.036644995 0.077348448 1.7325057
0.024638936 0.077130653 1.7277204
0.012758281 0.07726521 1.7308449
0.00083369546 0.077177517 1.7288933
-0.011095365 0.077309594 1.7318553
-0.02299899 0.077219397 1.729741
-0.035074066 0.077569962 1.7375338
-0.046961725 0.077433087 1.7342578
-0.058873449 0.077383377 1.7328982
-0.070768677 0.077332415 1.7314576
-0.082646869 0.077280208 1.7299359
-0.094723731 0.07740353 1.7323242
-0.10695863 0.077613913 1.7366232
0.036585703 0.065306135 1.7299956
0.024711916 0.065420985 1.7332021
0.012744913 0.065273106 1.7293329
0.00083520846 0.065385863 1.7323772
-0.011083746 0.065310635 1.7303436
-0.02310654 0.065608203 1.7382209
-0.035097446 0.065643013 1.7390217
-0.046751793 0.065190822 1.726754
-0.05891275 0.065485179 1.7343842
-0.07073506 0.065367334 1.7309462
-0.082560316 0.065285817 1.7284263
-0.094624691 0.06539011 1.730816
-0.10654274 0.065381244 1.7301296
0.036546752 0.05333212 1.7284017
0.024657413 0.053364899 1.72961
0.012753238 0.053396817 1.7307371
0.00083479809 0.053427871 1.731783
-0.011052913 0.053244114 1.7257512
-0.022924054 0.053212326 1.7246357
-0.034880385 0.053332489 1.728436
-0.046835974 0.053390652 1.7301556
-0.058682069 0.05332572 1.7277975
-0.070781179 0.05347383 1.7323501
-0.082803249 0.0535294 1.7338233
-0.094578214 0.053431351 1.7302233
-0.10642951 0.053393558 1.7285397
0.036570046 0.041454043 1.7297248
0.024644876 0.041432023 1.7289339
0.012754056 0.041480556 1.7310606
0.00083389645 0.041457195 1.7301073
-0.011079004 0.041456908 1.7300726
-0.022965033 0.041408468 1.7279572
-0.034922607 0.041478068 1.7307583
-0.04708029 0.041689444 1.7394737
-0.058921263 0.041591506 1.7351151
-0.070623927 0.041445438 1.7286786
-0.082950354 0.041654751 1.7371434
-0.094476111 0.041459914 1.7285508
-0.10619276 0.041383099 1.7248719
0.08448416 0.029635219 1.7343107
0.072583579 0.029655274 1.7358456
0.060492922 0.02959027 1.732303
0.048509426 0.029558612 1.7306761
0.084727965 0.017736586 1.7394661
0.072710119 0.017728372 1.7390045
0.060771562 0.017740062 1.7404591
0.048733123 0.017721176 1.7388337
0.084729314 0.005752522 1.7395464
0.072669864 0.005746583 1.7380853
0.060807116 0.0057569239 1.7415386
0.048706125 0.0057442486 1.7379142
0.084632829 -0.0062247282 1.7375469
0.072794065 -0.0062360303 1.7410812
0.060599558 -0.0062153051 1.7355406
0.048706107 -0.006222859 1.7379125
0.084438555 -0.018153658 1.7334687
0.072751448 -0.018217793 1.7399985
0.06046021 -0.018126108 1.7314601
0.048594233 -0.018148184 1.7338309
0.085014462 -0.030302152 1.7452883
0.07241784 -0.030064708 1.7318414
0.060389064 -0.030015836 1.7292972
0.048814788 -0.030224361 1.7416623
0.084769227 -0.042204734 1.7400477
0.072497129 -0.042041138 1.7335933
0.06052446 -0.042020902 1.7330482
0.048895702 -0.042288151 1.744413
0.084474444 -0.054006264 1.7337286
0.072906427 -0.054289442 1.7432523
0.060485955 -0.053924337 1.7317218
0.048725948 -0.054113317 1.7380886
0.084564038 -0.066024512 1.7353156
0.072362363 -0.065805621 1.7298614
0.060515642 -0.065886833 1.732312
0.048610955 -0.065929331 1.7336829
0.084989719 -0.078378044 1.7438052
0.072976246 -0.078386329 1.7443441
0.060648076 -0.077993169 1.7358153
0.048883829 -0.078310192 1.7431785
0.084683344 0.17343922 1.7329788
0.072547778 0.17306298 1.7295387
0.060704909 0.17337425 1.7329764
0.048624221 0.17299239 1.7293707
0.084702268 0.16149744 1.7341212
0.072563998 0.16114713 1.7306787
0.060718495 0.161437 1.7341186
0.048635103 0.16108145 1.7305104
0.085105166 0.15022813 1.743144
0.072620429 0.14930862 1.7327329
0.060592931 0.14915189 1.7311962
0.048700683 0.1493329 1.7335607
0.084495254 0.13720027 1.7311832
0.072675735 0.1374494 1.7347072
0.060742777 0.13753991 1.7361584
0.048682302 0.13731527 1.7335423
0.084461942 0.12519965 1.7310821
0.072523057 0.12521285 1.7316176
0.060546126 0.1251526 1.7310748
0.048607659 0.1251618 1.7314472
0.08452367 0.1133359 1.7328926
0.072410561 0.11308935 1.7294402
0.060555842 0.11322873 1.7318882
0.04853221 0.11304316 1.7292681
0.084439456 0.10127962 1.7316306
0.072545163 0.10134815 1.7331636
0.060737431 0.1015885 1.7376088
0.048816748 0.10171162 1.7399782
0.084450297 0.08934775 1.7322812
0.072637253 0.089510202 1.7358102
0.060572363 0.089365207 1.7332706
0.048684239 0.089473799 1.7356397
0.084507987 0.077455737 1.7338477
0.072479837 0.077375561 1.7323874
0.060371708 0.077161536 1.7278489
0.048745241 0.077609189 1.7382069
0.084660769 0.065621123 1.7373301
0.072445415 0.065403819 1.7318763
0.0606196 0.065521829 1.7353261
0.048444558 0.065227613 1.7277074
0.084667541 0.05365077 1.7377368
0.072451241 0.053473119 1.7322818
0.060589872 0.05353903 1.734733
0.048531737 0.053420737 1.7311093
0.0847212 0.041701566 1.7390606
0.072580092 0.041611031 1.7356024
0.060593773 0.041591037 1.735058
0.048534859 0.041499138 1.7314332
-0.12263698 0.2652812 1.7789551
-0.12240766 0.25245813 1.7767711
-0.12244633 0.24020687 1.7784516
-0.12261813 0.22819573 1.7820278
-0.1226531 0.215909 1.783543
-0.12133499 0.20136969 1.7651459
-0.12136582 0.18919872 1.7664781
0.036801882 0.26948097 1.727506
0.024773099 0.26903361 1.7247518
0.012827544 0.26949862 1.7278446
0.00083775428 0.2690427 1.7249265
-0.011111299 0.26858255 1.7219267
-0.023097748 0.2690348 1.7247746
-0.035103962 0.26932999 1.7265522
-0.047082283 0.26931545 1.7262721
-0.059058379 0.26929662 1.7259098
-0.071152553 0.26973176 1.7284286
-0.082954541 0.26909351 1.7239537
-0.094806053 0.26875663 1.7213734
-0.10741439 0.2704004 1.7315363
0.036814671 0.25758287 1.729304
0.024753561 0.25686321 1.7245682
0.012788358 0.25672358 1.723707
0.00083899737 0.25745606 1.7287
-0.011140451 0.25730824 1.7276753
-0.023158258 0.25774053 1.7305262
-0.035036489 0.25685447 1.7243928
-0.047071923 0.25727856 1.7270796
-0.058911338 0.25667652 1.7227629
-0.070854805 0.2566545 1.7223204
-0.083124608 0.25765032 1.7287135
-0.094785012 0.2567443 1.7221783
-0.10726959 0.25802362 1.730378
0.036701638 0.24483711 1.7250803
0.024775865 0.24512564 1.7272701
0.012836269 0.24568886 1.7313594
0.00084070431 0.24596962 1.7333864
-0.01115048 0.24555011 1.7303805
-0.02315283 0.24568385 1.7312537
-0.035048127 0.244978 1.7261045
-0.046953939 0.24468616 1.7238448
-0.059098497 0.2455045 1.7294219
-0.070918649 0.24492644 1.7250202
-0.082916625 0.24504073 1.725485
-0.095085964 0.24556881 1.7288337
-0.10688026 0.24511848 1.7251786
0.036713276 0.23295601 1.7267102
0.024825966 0.23362809 1.7318752
0.012796664 0.23297131 1.7270478
0.00083763758 0.23310596 1.7280855
-0.011090749 0.23230922 1.7221035
-0.023042008 0.23256899 1.7239693
-0.034939647 0.23229496 1.7217892
-0.047049016 0.23320986 1.728446
-0.058949564 0.23292848 1.7261032
-0.070699118 0.23224601 1.7207085
-0.082801476 0.23275219 1.7241454
-0.094630741 0.2324599 1.7215606
-0.10673192 0.23282619 1.7238425
0.036891468 0.22206992 1.7361935
0.024777111 0.22119869 1.7294604
0.012785963 0.22082695 1.7266124
0.000838843 0.22145776 1.7316194
-0.011100423 0.22057593 1.7246398
-0.023088358 0.22107397 1.7284913
-0.035129625 0.22156839 1.7322605
-0.047009725 0.22105332 1.728013
-0.05893378 0.22091204 1.7266599
-0.071244866 0.22202449 1.7351387
-0.082779258 0.2207447 1.7247019
-0.095090725 0.22159858 1.7310309
-0.10712839 0.22169459 1.7313313
0.036442313 0.20749575 1.7158289
0.024840564 0.20976491 1.7349002
0.012833323 0.20965116 1.7340357
0.0008362243 0.20882016 1.7271323
-0.01110993 0.20881873 1.7270969
-0.023042422 0.20869502 1.7259879
-0.034960192 0.20856795 1.7247971
-0.046889435 0.20855655 1.7245179
-0.058849994 0.20866081 1.7251496
-0.070740633 0.20852382 1.7237153
-0.082614303 0.20838356 1.7222003
-0.094848111 0.20907252 1.7275448
-0.10697671 0.20940123 1.7298298
0.036765702 0.19736126 1.7321061
0.024776822 0.19725715 1.7313225
0.012763946 0.19658884 1.7254887
0.00083740399 0.19715168 1.7305037
-0.011188926 0.19827241 1.7404051
-0.023022378 0.19658481 1.7253839
-0.03498961 0.19680157 1.727173
-0.046955634 0.19690301 1.7278868
-0.059402883 0.19857192 1.7424226
-0.070961587 0.1972086 1.7300619
-0.082778133 0.19685189 1.7265592
-0.094819762 0.19705293 1.7279383
-0.10676253 0.19702649 1.7272506
0.036733266 0.18522191 1.7314235
0.024853632 0.18586208 1.7375993
0.012818214 0.18544504 1.7337503
0.00083332713 0.18428701 1.7228582
-0.011115778 0.18502374 1.7297843
-0.023080828 0.18512493 1.7306617
-0.03497858 0.18480149 1.7274809
-0.046887323 0.18468593 1.7262073
-0.058948055 0.18509451 1.7298223
-0.070777796 0.18476227 1.7263985
-0.082610503 0.18453257 1.7238884
-0.094897866 0.1852483 1.7302347
-0.10666813 0.18490736 1.7265691
0.08491724 0.27000564 1.7297964
0.072666422 0.26911721 1.7244099
0.060734794 0.26929361 1.7258526
0.048759066 0.26931307 1.7262263
0.084898636 0.25793824 1.7306094
0.07293918 0.25811103 1.7321364
0.060859267 0.25784171 1.7306153
0.048803665 0.25756833 1.7290119
0.10367455 0.26310477 1.8533235
0.084782615 0.24559385 1.7293612
0.072963379 0.24617635 1.7338562
0.060879476 0.24591953 1.7323337
0.048709173 0.24510179 1.726769
0.084857516 0.23380834 1.7319858
0.072821341 0.2337002 1.7315334
0.060933243 0.23411836 1.7349613
0.048918393 0.23413533 1.7353359
0.084834978 0.22174697 1.7325495
0.072884582 0.22189581 1.7340786
0.060744643 0.22141251 1.7305686
0.048656218 0.22092564 1.7269757
0.084811106 0.20968863 1.7330298
0.072864115 0.20982951 1.7345595
0.060589496 0.2088964 1.7270772
0.048587039 0.20867367 1.7254649
0.084834024 0.19774614 1.7344195
0.072842494 0.19776683 1.7349572
0.06077845 0.19756001 1.7334273
0.048904978 0.19802319 1.7377743
0.084855638 0.18579429 1.7357279
0.07269574 0.18539219 1.7322916
0.06082847 0.18572488 1.7357283
0.048612587 0.18489514 1.7281501
-0.12057716 0.030113967 1.7612584
-0.12051331 0.017961735 1.7604247
-0.12065062 0.0058320896 1.7625014
-0.12044745 -0.0063073831 1.7595067
-0.12031008 -0.018416006 1.7574269
-0.12010306 -0.03047929 1.7542672
-0.12009723 -0.042572189 1.7540182
-0.12002177 -0.054632217 1.7526889
-0.11967366 -0.066525489 1.7472903
-0.12088035 -0.07936953 1.7647359
-0.12125961 0.17682168 1.7657418
-0.12108382 0.16437161 1.7639261
-0.12151463 0.15271933 1.7709707
-0.12255239 0.14168195 1.7868905
-0.12142397 0.12814939 1.7708976
-0.1213757 0.11587532 1.7707345
-0.12044586 0.10285812 1.7575393
-0.12052895 0.090791225 1.759196
-0.12115158 0.079059675 1.7687445
-0.12096015 0.066753469 1.7662512
-0.12008981 0.054179519 1.7537012
-0.12138378 0.042539358 1.7729806
0.036634646 0.029594155 1.7329658
0.024730807 0.02962923 1.7351747
0.012761973 0.029579215 1.7323031
0.00083393673 0.029545644 1.7303498
-0.011085884 0.02956236 1.7313147
-0.022979306 0.029527834 1.7291988
-0.034904297 0.029543592 1.730001
-0.046760809 0.029508119 1.7277234
-0.058755931 0.029556766 1.7303615
-0.07046552 0.029469591 1.7249247
-0.082434393 0.029500363 1.7264009
-0.094426565 0.029530657 1.7277946
-0.10631964 0.029526651 1.7271098
0.036656763 0.017671704 1.7341268
0.024703346 0.017662341 1.7333362
0.012769683 0.017662792 1.7334642
0.00083539629 0.017662952 1.7335105
-0.011086238 0.017642632 1.7314756
-0.022993213 0.017632125 1.7303596
-0.034885421 0.017621337 1.7291622
-0.046762303 0.017610263 1.7278839
-0.058589645 0.017588809 1.7255256
-0.070791394 0.017668037 1.7330784
-0.082484305 0.01761573 1.7275604
-0.09475407 0.017684273 1.7339463
-0.10668839 0.017681874 1.733259
0.036678288 0.0057347543 1.7352064
0.024717864 0.0057317172 1.7344159
0.012777186 0.005731863 1.734544
0.00083493185 0.0057253642 1.7325903
-0.011080067 0.0057187742 1.7305553
-0.023006745 0.0057219178 1.7314391
-0.034885973 0.0057151425 1.7292418
-0.046763044 0.0057115513 1.7279636
-0.058624197 0.0057078674 1.7266043
-0.070630699 0.0057171909 1.7291614
-0.082438327 0.0057100495 1.7266411
-0.094485141 0.0057191867 1.7290336
-0.10632471 0.0057151369 1.7273502
0.036678281 -0.006212574 1.7352048
0.024689605 -0.0062021874 1.7324145
0.01276258 -0.0062023452 1.7325424
0.00083493156 -0.0062024021 1.7325889
-0.011092758 -0.0062023592 1.7325538
-0.023019906 -0.0062022158 1.7324375
-0.034805994 -0.0061771353 1.7252408
-0.04687028 -0.0062016281 1.7319604
-0.058725081 -0.0061940891 1.729601
-0.070549764 -0.0061864527 1.7271614
-0.082580112 -0.0061964509 1.7296361
-0.094593287 -0.0062028021 1.731029
-0.10669006 -0.0062125982 1.7333375
0.036635783 -0.018138858 1.7331221
0.024717448 -0.018149983 1.7343314
0.012762369 -0.018129701 1.7324594
0.00083539548 -0.01814024 1.7335057
-0.011092573 -0.018129744 1.7324709
-0.023006357 -0.01811895 1.7313544
-0.034925375 -0.01811824 1.7311568
-0.046869505 -0.018127607 1.7318774
-0.058555953 -0.018053722 1.7245214
-0.070791319 -0.018145459 1.7330734
-0.082531482 -0.018102106 1.7285542
-0.09453766 -0.018120673 1.7299477
-0.10638382 -0.018107846 1.7282639
0.036634583 -0.030071359 1.7329576
0.024674272 -0.030038221 1.7311674
0.012754651 -0.030038984 1.7312951
0.00083489058 -0.030056456 1.7323414
-0.011098557 -0.030073443 1.7333062
-0.022992438 -0.030021161 1.7301905
-0.034944229 -0.030054376 1.7319924
-0.046921607 -0.030087093 1.7337122
-0.058621313 -0.029964603 1.7263561
-0.070586756 -0.029996354 1.7279137
-0.082528807 -0.030010432 1.7283902
-0.094318248 -0.029972468 1.7257897
-0.10638035 -0.030019946 1.7280995
0.036758471 -0.0421465 1.7387089
0.024743682 -0.0420762 1.7359198
0.012797832 -0.042101283 1.7370476
0.00083580508 -0.042029619 1.734095
-0.011085323 -0.04195727 1.7310606
-0.023004485 -0.041956309 1.7309445
-0.034902539 -0.041930649 1.7297473
-0.046865694 -0.041976351 1.7314674
-0.058752969 -0.041949339 1.7301079
-0.070745111 -0.041993685 1.7316639
-0.082572058 -0.041941319 1.7291434
-0.094367735 -0.041888285 1.7265429
-0.10643608 -0.04195461 1.728852
0.036693256 -0.054023925 1.7353822
0.024671465 -0.053871986 1.7305948
0.012753201 -0.053873353 1.7307227
0.00083431805 -0.053873841 1.7307688
-0.01107826 -0.053842634 1.7297345
-0.023016157 -0.053903062 1.731617
-0.03492026 -0.053870108 1.73042
-0.046889465 -0.053928804 1.7321396
-0.05878279 -0.053894117 1.7307798
-0.070740528 -0.053920228 1.7313367
-0.082472183 -0.053791337 1.7268198
-0.094469786 -0.053846542 1.7282126
-0.1064292 -0.05387006 1.728525
0.036585573 -0.06578251 1.7299777
0.024796557 -0.066124141 1.7391793
0.012788665 -0.065975189 1.7353106
0.00083663809 -0.0659758 1.735357
-0.011096396 -0.065862373 1.7323242
-0.022987964 -0.065747887 1.7292104
-0.03489745 -0.065745302 1.7290127
-0.046778437 -0.06570401 1.7277349
-0.058643524 -0.065661661 1.7263764
-0.070613481 -0.065731227 1.7279328
-0.08256004 -0.065762058 1.7284086
-0.094462149 -0.065754183 1.7278045
-0.10629884 -0.065707646 1.7261221
0.036937997 -0.078448109 1.7464676
0.024794148 -0.078095578 1.7386873
0.012787422 -0.077919662 1.7348197
0.00083989929 -0.0782317 1.7418592
-0.011241226 -0.078809336 1.7548109
-0.023275355 -0.078629613 1.7506973
-0.035033952 -0.077959448 1.735515
-0.047256377 -0.078399844 1.7452217
-0.058805954 -0.077771716 1.7308803
-0.071374975 -0.07847631 1.7464093
-0.083308086 -0.078379273 1.7438856
-0.095318057 -0.078369901 1.7432762
-0.10732345 -0.078359291 1.7425848
0.036762983 0.17339681 1.7336415
0.024774984 0.17330532 1.7328565
0.012828575 0.17360559 1.7359698
0.00083400361 0.17252211 1.72507
-0.011093099 0.17271821 1.7270254
-0.02303377 0.17281289 1.727904
-0.034986958 0.1729048 1.7287011
-0.047059163 0.17338847 1.7333956
-0.058895011 0.17298169 1.7290554
-0.070996657 0.17336115 1.7325902
-0.082960583 0.17334333 1.7320648
-0.094596595 0.17273124 1.7254963
-0.10651121 0.17270802 1.7248101
0.036729377 0.16127436 1.7327926
0.02478053 0.16137284 1.7339981
0.012794995 0.16119322 1.7321349
0.00083562138 0.16091913 1.729194
-0.011101918 0.160918 1.7291588
-0.023038927 0.16091433 1.7290425
-0.034934901 0.16072436 1.7268534
-0.046909053 0.16089924 1.7285655
-0.058639508 0.16033684 1.7222332
-0.070608586 0.16050655 1.7237827
-0.082459904 0.16039822 1.7222656
-0.095103756 0.16166441 1.7355829
-0.1067782 0.16118367 1.7299232
0.036465049 0.14823583 1.7209021
0.024771579 0.14934759 1.7340618
0.01270286 0.14816064 1.7202414
0.00083484116 0.14884241 1.7282586
-0.011104231 0.14901149 1.7302163
-0.023004262 0.14875293 1.7271107
-0.034982104 0.14900225 1.7299018
-0.046999145 0.1492492 1.7326105
-0.058685292 0.1485583 1.7242825
-0.07050205 0.14837533 1.7218505
-0.082477041 0.14853008 1.7233195
-0.094313242 0.14842743 1.7217214
-0.10625296 0.1484924 1.7220317
0.036681302 0.13716666 1.7318404
0.024691686 0.13693757 1.7290595
0.012756358 0.13686277 1.7281901
0.00083070749 0.13623801 1.7202612
-0.011087348 0.13686308 1.7282015
-0.023074465 0.13725117 1.7330694
-0.035088684 0.13748057 1.7358617
-0.047222462 0.13794248 1.7415608
-0.058864556 0.13707204 1.7302374
-0.07071764 0.13690363 1.7278029
-0.082492866 0.13665485 1.7242923
-0.094385356 0.1366386 1.7236888
-0.10688166 0.13740219 1.7329553
0.036666844 0.12516898 1.7317382
0.024696043 0.12503128 1.7299531
0.0127732 0.12510587 1.7310784
0.00083467178 0.12496413 1.7291298
-0.011082964 0.1248918 1.7280973
-0.023025904 0.12503183 1.7299756
-0.035034951 0.12531272 1.7337668
-0.046802148 0.12480573 1.7265074
-0.058975745 0.12536834 1.7341228
-0.070770517 0.12507167 1.7296928
-0.082979664 0.1254873 1.7351474
-0.094672143 0.12511529 1.7295604
-0.10647454 0.12495559 1.7268828
0.036630865 0.11311427 1.730556
0.024657661 0.11292504 1.7277721
0.012760657 0.11305718 1.7298954
0.00083528314 0.11312287 1.7309396
-0.011122792 0.11338064 1.7348962
-0.023042761 0.1131841 1.7317861
-0.034940682 0.1130504 1.7295926
-0.046943627 0.11323807 1.7323062
-0.059119642 0.11368241 1.7389266
-0.070983969 0.11347862 1.735491
-0.08261507 0.11301459 1.7279884
-0.094687298 0.11319493 1.7303734
-0.10697839 0.11356722 1.7356629
0.036615226 0.1011392 1.7302893
0.024717694 0.10125905 1.7324948
0.01271872 0.10079896 1.7246366
0.00083779072 0.10149386 1.7366625
-0.011143428 0.10160882 1.7386241
-0.023046091 0.1012595 1.7325177
-0.0350856 0.10154467 1.7373104
-0.047004003 0.10142341 1.735034
-0.05906095 0.10158964 1.7376659
-0.070711218 0.10111825 1.729242
-0.083146662 0.1017437 1.7396882
-0.095079325 0.10167375 1.7380832
-0.10638519 0.10102426 1.7264323
0.036682747 0.089376926 1.7339343
0.024706753 0.089278594 1.7321465
0.01273495 0.089025758 1.727281
0.0008393309 0.089689814 1.7403105
-0.011132174 0.089536138 1.7372791
-0.023154365 0.089738145 1.7411568
-0.034970209 0.089275494 1.7319714
-0.046822436 0.089117527 1.7286971
-0.058900446 0.089366212 1.7333277
-0.070760734 0.089256391 1.7308893
-0.082590349 0.089145161 1.7283707
-0.094821222 0.089440465 1.7337499
-0.10670315 0.089377359 1.7320653
0.036749694 0.077569447 1.7374997
0.024667175 0.077219054 1.7297182
0.012721787 0.077044196 1.7258499
0.00083417294 0.077221721 1.7298923
-0.011050957 0.077000178 1.7248622
-0.02299899 0.077219397 1.729741
-0.035074066 0.077569962 1.7375338
-0.046908114 0.077344693 1.7322605
-0.058671709 0.07711821 1.7269075
-0.070728242 0.077288225 1.7304593
-0.082646869 0.077280208 1.7299359
-0.094723731 0.07740353 1.7323242
-0.10726301 0.077834785 1.741609
0.036585703 0.065306135 1.7299956
0.024782522 0.065607898 1.738198
0.012744913 0.065273106 1.7293329
0.00083520846 0.065385863 1.7323772
-0.011052024 0.065123715 1.7253472
-0.022948546 0.065159604 1.7262304
-0.034977522 0.06541872 1.7330271
-0.046778601 0.065228201 1.7277528
-0.058845498 0.065410428 1.7323867
-0.070492402 0.065143086 1.7249553
-0.082702093 0.065397926 1.7314209
-0.094624691 0.06539011 1.730816
-0.1063601 0.065269165 1.7271373
0.036546752 0.05333212 1.7284017
0.024671536 0.053395465 1.7306094
0.012797038 0.053580206 1.7367342
0.0008343205 0.053397309 1.7307835
-0.011052913 0.053244114 1.7257512
-0.022937221 0.053242892 1.7256352
-0.034860399 0.053301927 1.7274367
-0.046809167 0.053360093 1.7291565
-0.058749329 0.053386841 1.7297955
-0.070781179 0.05347383 1.7323501
-0.082614198 0.053407185 1.7298297
-0.094470061 0.053370252 1.7282273
-0.10661217 0.053485196 1.7315327
0.036590993 0.041477788 1.7307243
0.024574261 0.041313305 1.7239358
0.012754056 0.041480556 1.7310606
0.00083341886 0.04143345 1.7291076
-0.011059968 0.041385677 1.7270734
-0.023030873 0.041527182 1.7329555
-0.034962587 0.04152555 1.7327573
-0.047214348 0.041808147 1.7444705
-0.059190311 0.041781422 1.7431083
-0.070664376 0.041469175 1.7296776
-0.082808562 0.041583546 1.7341477
-0.094638348 0.041531112 1.7315456
-0.10631454 0.041430555 1.7268676
0.084291272 0.029567558 1.730316
0.072459362 0.029604524 1.7328486
0.060562097 0.029624106 1.7343016
0.048481658 0.029541694 1.7296766
0.084486857 0.017686112 1.7344722
0.07250309 0.017677892 1.734009
0.060702387 0.017719869 1.7384604
0.048538744 0.017650492 1.7318367
0.084584638 0.0057426998 1.73655
0.072380014 0.0057236622 1.7310914
0.060530405 0.0057307263 1.7335435
0.048622821 0.0057344236 1.7349154
0.084729277 -0.0062318216 1.7395446
0.073332362 -0.0062821442 1.75407
0.060392026 -0.0061940202 1.7295443
0.048539497 -0.0062015723 1.7319149
0.084583223 -0.018184761 1.736465
0.072627231 -0.018186687 1.7370012
0.060667742 -0.018188326 1.7374562
0.0485387 -0.018127443 1.7318318
0.084580466 -0.030147461 1.7363
0.07262487 -0.030150656 1.7368364
0.060665764 -0.030153364 1.7372912
0.048675951 -0.030138399 1.736665
0.084721006 -0.042180728 1.7390492
0.072207309 -0.041873068 1.7266014
0.060662802 -0.042116951 1.7370447
0.048729107 -0.042144068 1.738417
0.08466731 -0.054129567 1.7377222
0.072823629 -0.054227781 1.7412549
0.060555123 -0.053985998 1.7337196
0.048781473 -0.054174986 1.7400868
0.084756881 -0.066175081 1.7393081
0.072652146 -0.066069148 1.7368505
0.060377322 -0.065736234 1.7283173
0.048472147 -0.06574107 1.7286884
0.084845096 -0.078244671 1.7408116
0.07281068 -0.078208484 1.7403514
0.060786381 -0.078171037 1.7398089
0.048828308 -0.078221254 1.7411813
0.084875919 0.17383362 1.7369547
0.07263045 0.1732602 1.7315272
0.060601316 0.17307839 1.7299929
0.048651941 0.17309102 1.7303655
0.084461495 0.16103838 1.7291481
0.072563998 0.16114713 1.7306787
0.06061488 0.16116151 1.7311331
0.04866283 0.16117328 1.7315058
0.084912516 0.14988805 1.7391633
0.072620429 0.14930862 1.7327329
0.060523838 0.14898182 1.7292047
0.048700683 0.1493329 1.7335607
0.084687948 0.13751315 1.7351662
0.072551645 0.13721472 1.7317189
0.060570017 0.13714872 1.7311767
0.048654564 0.13723703 1.7325457
0.084461942 0.12519965 1.7310821
0.072398946 0.12499856 1.7286278
0.060546126 0.1251526 1.7310748
0.048635405 0.12523323 1.7324443
0.084571861 0.11340051 1.7338893
0.072534688 0.11328322 1.7324314
0.060555842 0.11322873 1.7318882
0.048615456 0.11323705 1.7322606
0.08458405 0.10145304 1.734622
0.072669312 0.1015216 1.736156
0.060668293 0.10147285 1.7356133
0.048733491 0.10153814 1.7369844
0.084594905 0.089500748 1.7352738
0.072554469 0.089408197 1.7338145
0.060434069 0.089161173 1.7292782
0.048684239 0.089473799 1.7356397
0.08465261 0.07758829 1.7368413
0.072521232 0.07741975 1.7333857
0.060371708 0.077161536 1.7278489
0.048495408 0.077211417 1.7292191
0.084757194 0.065695859 1.7393264
0.072445415 0.065403819 1.7318763
0.060585022 0.065484449 1.7343273
0.04850008 0.065302379 1.7297052
0.084426463 0.053498007 1.7327451
0.07253404 0.053534232 1.7342792
0.060797371 0.053722382 1.7407266
0.04867056 0.053573545 1.736105
0.08467298 0.041677833 1.7380621
0.072455883 0.041539822 1.7326057
0.060593773 0.041591037 1.735058
0.048507094 0.041475397 1.7304338
-0.12178534 0.2757034 1.7652717
-0.12277189 0.26557305 1.7809291
-0.1219353 0.25148392 1.7698553
-0.12197382 0.23927994 1.7715293
-0.12207796 0.22719045 1.7741097
-0.12211278 0.21495786 1.7756182
-0.12133499 0.20136969 1.7651459
-0.12210915 0.19035751 1.7773916
-0.088948548 0.30137259 1.848296
0.036593255 0.26795331 1.7176256
0.024716828 0.26842251 1.7207992
0.012813001 0.26919305 1.7258682
0.00083727855 0.2688899 1.7239382
-0.01113026 0.26904088 1.7248914
-0.023097748 0.2690348 1.7247746
-0.035064138 0.26902446 1.7245761
-0.047082283 0.26931545 1.7262721
-0.059091877 0.26944935 1.7268975
-0.070910811 0.26881534 1.722504
-0.082766227 0.26848266 1.7200052
-0.095021524 0.26936746 1.7253206
-0.10729309 0.27009505 1.7295635
0.036814671 0.25758287 1.729304
0.024781708 0.25715527 1.7265466
0.012795632 0.25686961 1.7246963
0.00084090093 0.25804019 1.7326572
-0.011127806 0.25701618 1.7256968
-0.022987688 0.25584215 1.7176666
-0.035036489 0.25685447 1.7243928
-0.046965063 0.25669453 1.7231239
-0.058911338 0.25667652 1.7227629
-0.07065329 0.25592455 1.7173781
-0.082653649 0.25619054 1.7188318
-0.094838902 0.25689024 1.7231662
-0.10745161 0.25846145 1.7333403
0.036659885 0.24455857 1.7231002
0.02480402 0.24540418 1.7292504
0.012763501 0.24429606 1.721457
0.00083832408 0.24527322 1.7284352
-0.011131506 0.24513227 1.7274098
-0.02310033 0.24512674 1.7272931
-0.035127826 0.24553508 1.7300647
-0.046873767 0.24426836 1.7208751
-0.059098497 0.2455045 1.7294219
-0.070797697 0.24450871 1.7220519
-0.082869515 0.24490151 1.7244958
-0.095032059 0.24542961 1.7278448
-0.10700165 0.24539687 1.7271554
0.036817692 0.23361857 1.731665
0.024783721 0.23323053 1.7289019
0.012803943 0.23310383 1.728039
0.00083763758 0.23310596 1.7280855
-0.011090749 0.23230922 1.7221035
-0.023107655 0.23323159 1.7289249
-0.034999441 0.23269249 1.7247622
-0.046968818 0.23281235 1.7254735
-0.059117224 0.23359096 1.7310562
-0.070658788 0.23211353 1.7197181
-0.082660094 0.23235478 1.7211753
-0.094522893 0.23219499 1.7195811
-0.10691406 0.2332235 1.7268105
0.036828797 0.22169268 1.7332181
0.024763025 0.22107294 1.7284684
0.012793244 0.22095272 1.7276045
0.000837414 0.2210805 1.7286432
-0.011094093 0.22045018 1.7236477
-0.023101492 0.22119972 1.7294832
-0.03502994 0.22093965 1.7273011
-0.046956245 0.22080185 1.7260296
-0.059000865 0.2211635 1.7286429
-0.071123838 0.22164732 1.732165
-0.083109245 0.22162467 1.7316386
-0.095144659 0.22172427 1.7320216
-0.10712839 0.22169459 1.7313313
0.036588587 0.20832859 1.7227777
0.024784205 0.20928898 1.730929
0.012767773 0.2085803 1.7250999
0.00083813025 0.20929611 1.7311039
-0.011128922 0.20917568 1.7300756
-0.023068696 0.20893298 1.7279735
-0.035000078 0.2088059 1.7267826
-0.046862684 0.20843758 1.7235254
-0.058715787 0.20818496 1.7211803
-0.070861697 0.20888068 1.7266916
-0.082614303 0.20838356 1.7222003
-0.094524398 0.20835896 1.7215961
-0.10740194 0.2102336 1.7367672
0.036702998 0.19702466 1.7291256
0.024664072 0.1963595 1.7233739
0.012749376 0.19636443 1.7235014
0.00083597418 0.19681506 1.7275226
-0.011119272 0.19703811 1.7294748
-0.022982957 0.19624819 1.722403
-0.035009556 0.19691378 1.7281665
-0.046821855 0.19634202 1.7229202
-0.059033714 0.19733785 1.7314982
-0.070921227 0.19709641 1.729069
-0.082730964 0.19673973 1.7255666
-0.095251501 0.19795015 1.7358761
-0.10639794 0.19635366 1.7212996
0.03671236 0.18511648 1.7304293
0.024825437 0.18565123 1.7356106
0.012774491 0.18481247 1.7277839
0.00083475735 0.18460329 1.7258414
-0.011090443 0.18460204 1.7258066
-0.023028251 0.18470325 1.7266843
-0.034958627 0.18469606 1.7264867
-0.046887323 0.18468593 1.7262073
-0.058981624 0.18519992 1.7308161
-0.070697039 0.18455148 1.7244112
-0.082752034 0.18484873 1.7268684
-0.094412044 0.18429993 1.7212981
-0.10654657 0.18469664 1.7245839
0.0850133 0.27031109 1.7317705
0.072501458 0.26850629 1.7204603
0.060734794 0.26929361 1.7258526
0.048759066 0.26931307 1.7262263
0.085090823 0.25852215 1.7345619
0.073104203 0.25869501 1.7360901
0.060790341 0.2575497 1.7286379
0.048775997 0.2574223 1.7280229
0.084590361 0.24503694 1.7254049
0.072963379 0.24617635 1.7338562
0.060879476 0.24591953 1.7323337
0.048570797 0.24440548 1.7218196
0.085097909 0.23447068 1.736936
0.072986469 0.23423015 1.7354947
0.060967725 0.23425084 1.7359519
0.049056817 0.23479785 1.7402899
0.085123532 0.2225012 1.738495
0.072967172 0.22214726 1.736061
0.060537674 0.22065812 1.7246199
0.04857314 0.22054842 1.7240007
0.084281936 0.20838031 1.7221208
0.072368436 0.2084021 1.7226551
0.060347963 0.20806368 1.7201312
0.048503939 0.20831676 1.7224874
0.084834024 0.19774614 1.7344195
0.072801173 0.19765465 1.7339644
0.06077845 0.19756001 1.7334273
0.048794143 0.19757441 1.733801
0.084759369 0.18558352 1.7337414
0.072489098 0.18486519 1.7273237
0.060897514 0.18593569 1.737716
0.048557159 0.18468431 1.726162
-0.12057716 0.030113967 1.7612584
-0.12051331 0.017961735 1.7604247
-0.12065062 0.0058320896 1.7625014
-0.12044745 -0.0063073831 1.7595067
-0.12031008 -0.018416006 1.7574269
-0.12010306 -0.03047929 1.7542672
-0.12009723 -0.042572189 1.7540182
-0.12002177 -0.054632217 1.7526889
-0.11967366 -0.066525489 1.7472903
-0.12088035 -0.07936953 1.7647359
-0.12125961 0.17682168 1.7657418
-0.12108382 0.16437161 1.7639261
-0.12151463 0.15271933 1.7709707
-0.12255239 0.14168195 1.7868905
-0.12142397 0.12814939 1.7708976
-0.1213757 0.11587532 1.7707345
-0.12044586 0.10285812 1.7575393
-0.12052895 0.090791225 1.759196
-0.12115158 0.079059675 1.7687445
-0.12096015 0.066753469 1.7662512
-0.12008981 0.054179519 1.7537012
-0.12138378 0.042539358 1.7729806
0.036634646 0.029594155 1.7329658
0.024730807 0.02962923 1.7351747
0.012761973 0.029579215 1.7323031
0.00083393673 0.029545644 1.7303498
-0.011085884 0.02956236 1.7313147
-0.022979306 0.029527834 1.7291988
-0.034904297 0.029543592 1.730001
-0.046760809 0.029508119 1.7277234
-0.058755931 0.029556766 1.7303615
-0.07046552 0.029469591 1.7249247
-0.082434393 0.029500363 1.7264009
-0.094426565 0.029530657 1.7277946
-0.10631964 0.029526651 1.7271098
0.036656763 0.017671704 1.7341268
0.024703346 0.017662341 1.7333362
0.012769683 0.017662792 1.7334642
0.00083539629 0.017662952 1.7335105
-0.011086238 0.017642632 1.7314756
-0.022993213 0.017632125 1.7303596
-0.034885421 0.017621337 1.7291622
-0.046762303 0.017610263 1.7278839
-0.058589645 0.017588809 1.7255256
-0.070791394 0.017668037 1.7330784
-0.082484305 0.01761573 1.7275604
-0.09475407 0.017684273 1.7339463
-0.10668839 0.017681874 1.733259
0.036678288 0.0057347543 1.7352064
0.024717864 0.0057317172 1.7344159
0.012777186 0.005731863 1.734544
0.00083493185 0.0057253642 1.7325903
-0.011080067 0.0057187742 1.7305553
-0.023006745 0.0057219178 1.7314391
-0.034885973 0.0057151425 1.7292418
-0.046763044 0.0057115513 1.7279636
-0.058624197 0.0057078674 1.7266043
-0.070630699 0.0057171909 1.7291614
-0.082438327 0.0057100495 1.7266411
-0.094485141 0.0057191867 1.7290336
-0.10632471 0.0057151369 1.7273502
0.036678281 -0.006212574 1.7352048
0.024689605 -0.0062021874 1.7324145
0.01276258 -0.0062023452 1.7325424
0.00083493156 -0.0062024021 1.7325889
-0.011092758 -0.0062023592 1.7325538
-0.023019906 -0.0062022158 1.7324375
-0.034805994 -0.0061771353 1.7252408
-0.04687028 -0.0062016281 1.7319604
-0.058725081 -0.0061940891 1.729601
-0.070549764 -0.0061864527 1.7271614
-0.082580112 -0.0061964509 1.7296361
-0.094593287 -0.0062028021 1.731029
-0.10669006 -0.0062125982 1.7333375
0.036635783 -0.018138858 1.7331221
0.024717448 -0.018149983 1.7343314
0.012762369 -0.018129701 1.7324594
0.00083539548 -0.01814024 1.7335057
-0.011092573 -0.018129744 1.7324709
-0.023006357 -0.01811895 1.7313544
-0.034925375 -0.01811824 1.7311568
-0.046869505 -0.018127607 1.7318774
-0.058555953 -0.018053722 1.7245214
-0.070791319 -0.018145459 1.7330734
-0.082531482 -0.018102106 1.7285542
-0.09453766 -0.018120673 1.7299477
-0.10638382 -0.018107846 1.7282639
0.036634583 -0.030071359 1.7329576
0.024674272 -0.030038221 1.7311674
0.012754651 -0.030038984 1.7312951
