ply
format ascii 1.0
comment PCL generated
element vertex 1407
property float x
property float y
property float z
element camera 0
property float view_px
property float view_py
property float view_pz
property float x_axisx
property float x_axisy
property float x_axisz
property float y_axisx
property float y_axisy
property float y_axisz
property float z_axisx
property float z_axisy
property float z_axisz
property float focal
property float scalex
property float scaley
property float centerx
property float centery
property int viewportx
property int viewporty
property float k1
property float k2
end_header
-0.25578848 0.15037195 1.6016022
-0.11028957 0.1386117 1.6059525
-0.12130164 0.13850364 1.6041685
-0.13278161 0.13890317 1.6082686
-0.14379518 0.13879073 1.6063324
-0.15488312 0.13876106 1.6053135
-0.16494803 0.13788022 1.5943071
-0.17692813 0.13861039 1.6020586
-0.18856135 0.13899858 1.6057625
-0.19940022 0.13879059 1.6024605
-0.21058857 0.13883497 1.6020504
-0.22164522 0.13879241 1.6005762
-0.23340225 0.13917156 1.6039574
-0.24491806 0.13937885 1.6052829
-0.25646296 0.13958389 1.6065269
-0.11031068 0.1275294 1.6068604
-0.12162258 0.12774268 1.6090524
-0.1324821 0.12748487 1.6052039
-0.1437346 0.1276159 1.6062484
-0.15500745 0.12774487 1.6072147
-0.16609691 0.12771553 1.6061194
-0.17652832 0.12721567 1.5990022
-0.18848202 0.12780708 1.6056825
-0.19955991 0.12777179 1.6043588
-0.21075712 0.12781258 1.6039482
-0.22412473 0.12909947 1.619264
-0.23515233 0.12897991 1.6167101
-0.24481528 0.12815686 1.6052101
-0.25635552 0.12834549 1.6064563
-0.11005951 0.11615546 1.6037121
-0.12134615 0.11635021 1.6059074
-0.13218033 0.11611485 1.6020591
-0.1425273 0.11552098 1.5931712
-0.15465528 0.1163523 1.6040766
-0.16582109 0.11639689 1.603976
-0.17731781 0.11665355 1.6067734
-0.18782389 0.11626668 1.6005718
-0.19959463 0.11666215 1.6051928
-0.21092242 0.1167706 1.6057717
-0.22131921 0.11637861 1.5993537
-0.23291789 0.11662591 1.6017553
-0.24515545 0.11715594 1.6080188
-0.25608841 0.11704348 1.6053236
-0.1098741 0.10489494 1.6014799
-0.12114214 0.10507116 1.6036779
-0.13236395 0.10518111 1.604803
-0.14343049 0.10516021 1.6038622
-0.15496439 0.10546035 1.6078126
-0.16605072 0.10543612 1.6067178
-0.17734595 0.10553923 1.6075312
-0.18923578 0.10596312 1.6132222
-0.19999205 0.10574038 1.608922
-0.21108446 0.10570951 1.6075199
-0.22189599 0.10554814 1.6040646
-0.23295458 0.10551408 1.6025131
-0.24504501 0.10592921 1.6077933
-0.25612858 0.10589183 1.606084
-0.1103636 0.094248086 1.6091303
-0.12101064 0.093885675 1.602366
-0.13230169 0.094041795 1.6044878
-0.14327495 0.093965344 1.602553
-0.15413293 0.093829699 1.5995499
-0.16556628 0.094039015 1.6024334
-0.1768292 0.094131336 1.6032512
-0.1875349 0.093933634 1.599032
-0.19965467 0.094426773 1.6066327
-0.21098575 0.094514504 1.6072129
-0.22192752 0.094427787 1.6047468
-0.23341431 0.09457019 1.6061594
-0.24358989 0.094192564 1.5986066
-0.25569758 0.094562411 1.6038098
-0.10997167 0.082838707 1.603757
-0.12087714 0.082722902 1.6009768
-0.13174964 0.082605831 1.5981238
-0.14294094 0.082691297 1.599177
-0.15453203 0.08297918 1.6041292
-0.16538405 0.08285822 1.6010503
-0.17685169 0.083041504 1.6038556
-0.18767391 0.082917981 1.6006273
-0.19931403 0.083149441 1.6042655
-0.21088369 0.083328612 1.6068295
-0.22154902 0.083150387 1.6023844
-0.23301695 0.083276033 1.603801
-0.24511053 0.083603628 1.6090864
-0.25588542 0.083472468 1.6054034
-0.11045776 0.072081223 1.6112614
-0.12118863 0.071848363 1.6054885
-0.13184565 0.071614429 1.5996454
-0.14313306 0.071732618 1.6016936
-0.15407491 0.071673073 1.599685
-0.16611412 0.072097786 1.6085348
-0.1771967 0.072080046 1.6073638
-0.18792522 0.071928874 1.60314
-0.19933613 0.072041191 1.6047946
-0.21039201 0.072020113 1.603397
-0.22225109 0.072262302 1.6078627
-0.23346949 0.072282992 1.6072977
-0.24483952 0.072346583 1.6076429
-0.2560693 0.072365016 1.6069217
-0.1101976 0.060814016 1.6077272
-0.12149823 0.060915887 1.6099272
-0.13210219 0.060680658 1.6030844
-0.14341106 0.060780581 1.6051316
-0.15503848 0.060991477 1.6100842
-0.16612998 0.060977407 1.6089886
-0.17710513 0.060925089 1.606824
-0.18817355 0.06090913 1.6055779
-0.19935508 0.060929522 1.6052483
-0.21015441 0.060837127 1.6018686
-0.22200111 0.061041977 1.6063378
-0.23334931 0.061096746 1.6067638
-0.24411747 0.061001569 1.6031579
-0.25671655 0.061352268 1.6113257
-0.11000334 0.049628928 1.6051126
-0.12068845 0.04946794 1.5993406
-0.13203141 0.049580984 1.6024643
-0.1428939 0.049510058 1.5995345
-0.15391217 0.049499415 1.5985223
-0.16532978 0.049610034 1.6014121
-0.17679383 0.049719825 1.6042209
-0.18830372 0.049828779 1.6069485
-0.19924887 0.049784463 1.604634
-0.21055742 0.049830839 1.6052194
-0.22242527 0.049998283 1.6096872
-0.23393691 0.050073482 1.6111
-0.24443477 0.049934719 1.6055127
-0.25642514 0.050099667 1.6097316
-0.11075508 0.038814496 1.6163851
-0.12106869 0.038547061 1.6046251
-0.13220246 0.038563702 1.6047578
-0.14307924 0.038508594 1.6018264
-0.15411174 0.038500305 1.6008126
-0.16483186 0.03842032 1.5967399
-0.17723891 0.03871889 1.6084973
-0.18831567 0.038708746 1.6072506
-0.19950552 0.038721684 1.6069204
-0.21095708 0.038781364 1.6084956
-0.22189708 0.038745735 1.6060282
-0.23338242 0.038804177 1.6074452
-0.24594069 0.039027553 1.615701
-0.25659704 0.038942803 1.6110225
0.034121118 0.02756368 1.6130093
0.023021825 0.027581751 1.614204
0.011907768 0.02759937 1.6153229
0.00077566627 0.027481172 1.6083673
-0.010318058 0.027514823 1.6103344
-0.021412235 0.027514188 1.6102262
-0.032505378 0.027513105 1.6100422
-0.043596946 0.027511586 1.6097827
-0.054720037 0.027526537 1.6104466
-0.065813661 0.027524125 1.6100353
-0.076478697 0.02736903 1.6005597
-0.087882683 0.027484145 1.606989
-0.099012457 0.027497329 1.6073498
0.034185048 0.016480127 1.6161587
0.022937814 0.016400024 1.608355
0.011900848 0.016461035 1.6144735
0.0007761686 0.01641069 1.6095167
-0.010305695 0.016400477 1.6084843
-0.021439262 0.016440492 1.6123759
-0.032506414 0.016419653 1.6101921
-0.043249767 0.016287474 1.5969378
-0.054620884 0.016397374 1.6075984
-0.065896675 0.016446417 1.6121836
-0.076812029 0.016404333 1.6077007
-0.08793956 0.016412459 1.6081371
-0.099015594 0.016410232 1.6074992
0.034185588 0.0053450135 1.6162331
0.02303705 0.0053419601 1.6154283
0.011871831 0.0053257197 1.610548
0.00077809149 0.0053355941 1.613591
-0.010324896 0.0053290064 1.6115583
-0.02142643 0.0053288839 1.6114502
-0.032526921 0.0053286743 1.6112661
-0.043545403 0.0053185546 1.6080073
-0.054621741 0.0053181737 1.6076723
-0.065735899 0.0053209821 1.608261
-0.076576889 0.0053040595 1.6027803
-0.087940954 0.0053230664 1.6082114
-0.098651789 0.0053027044 1.6015848
0.034185581 -0.0057903603 1.6162317
0.023008792 -0.005779956 1.613427
0.011857226 -0.0057623619 1.6085465
0.000775703 -0.0057624145 1.6085896
-0.010324895 -0.0057730195 1.611557
-0.021400085 -0.0057657901 1.6094489
-0.03250692 -0.0057691108 1.6102647
-0.043679453 -0.0057794349 1.613004
-0.054621726 -0.0057612834 1.6076708
-0.065735877 -0.0057643265 1.6082596
-0.076718673 -0.0057566343 1.6057754
-0.087832764 -0.0057594911 1.6062127
-0.099078037 -0.0057693478 1.6085702
0.034205962 -0.016935823 1.6171539
0.022937791 -0.016843185 1.6083506
0.011857029 -0.016843611 1.6084694
0.00077712315 -0.016874881 1.6115123
-0.010305686 -0.016843652 1.60848
-0.0214129 -0.016864004 1.6103714
-0.032426421 -0.016821858 1.6061885
-0.04373236 -0.01691426 1.6149257
-0.054654468 -0.016850833 1.6085932
-0.065815702 -0.016870093 1.6101806
-0.076859221 -0.016857976 1.6086948
-0.088047661 -0.016876692 1.6101297
-0.098771922 -0.016812209 1.6035025
0.034204844 -0.028076919 1.6170002
0.023064159 -0.028078087 1.6171957
0.011900447 -0.028027214 1.6143156
0.00077900832 -0.028044667 1.6153587
-0.01030535 -0.027924113 1.6083273
-0.021412201 -0.027957851 1.6102186
-0.03250533 -0.02795676 1.6100348
-0.043570064 -0.027938014 1.6087756
-0.054619055 -0.027918827 1.6074411
-0.06573265 -0.027933568 1.6080297
-0.076762185 -0.027913483 1.6065446
-0.087990701 -0.027961701 1.6089783
-0.099194959 -0.027992269 1.6103359
0.034224126 -0.039240673 1.6177703
0.023048909 -0.039194267 1.6159664
0.011899867 -0.039147228 1.6140864
0.00078231352 -0.039339721 1.6221273
-0.010311191 -0.039027229 1.6090983
-0.021476997 -0.039170429 1.6149881
-0.032683648 -0.039264955 1.6188016
-0.043809235 -0.039238762 1.6175412
-0.054784536 -0.039115898 1.6122086
-0.06605304 -0.039208513 1.6157923
-0.077136576 -0.039180443 1.6143051
-0.08885169 -0.039439801 1.6247216
-0.1001035 -0.039458454 1.6250751
0.034153018 0.18333615 1.6079228
0.023057384 0.18356809 1.6101052
0.011889704 0.18312386 1.6062498
0.00077830435 0.18323773 1.6072868
-0.021419222 0.18289568 1.604165
-0.043611214 0.18287857 1.603721
-0.077118091 0.18339194 1.6074508
-0.08823581 0.18337025 1.6068869
-0.098741665 0.18222427 1.5963286
0.034308076 0.17299326 1.6160953
0.022992782 0.17194614 1.606348
0.01188545 0.17195046 1.6064671
0.00078184012 0.17290086 1.61546
-0.010444398 0.17384851 1.6243771
-0.021529838 0.17268488 1.6133295
-0.0325642 0.17204565 1.6071794
-0.0436491 0.17193079 1.6059251
-0.054785438 0.17202404 1.6065834
-0.065811642 0.17179835 1.6041845
-0.077090554 0.17220229 1.607671
-0.087934375 0.171655 1.6021421
-0.099313803 0.17215876 1.6064675
0.034065355 0.16067316 1.6052989
0.023054695 0.16127159 1.6114635
0.011888298 0.16088109 1.6076024
0.0007748747 0.16029069 1.6016747
-0.010320193 0.16068417 1.6056228
-0.021403525 0.16058184 1.6045195
-0.032532085 0.16077286 1.6063255
-0.043713093 0.16105995 1.60905
-0.054664243 0.16055541 1.603741
-0.065908156 0.16093595 1.6073077
-0.077250555 0.16141242 1.6117899
-0.088171363 0.16099891 1.6072505
-0.098851159 0.16028723 1.599658
0.034093898 0.14970228 1.6073529
0.022989336 0.14970845 1.6075475
0.01187638 0.14962037 1.606671
0.00077695615 0.14962173 1.606714
-0.010335176 0.14980437 1.6086727
-0.021421468 0.14961727 1.6065731
-0.032579292 0.14988695 1.6093757
-0.043615781 0.14960323 1.6061295
-0.054777227 0.14977627 1.6077843
-0.06580171 0.14957961 1.6053829
-0.076937407 0.14965604 1.6058908
-0.088191047 0.14991368 1.6083111
-0.09875159 0.14906736 1.5987259
0.034100991 0.13862559 1.6083363
0.022994118 0.13863131 1.608531
0.011856975 0.13829461 1.6046648
0.00077902607 0.13889123 1.6116825
-0.010343667 0.13880523 1.6106535
-0.021452231 0.138717 1.6095486
-0.032426335 0.13811626 1.6023911
-0.043624848 0.13853386 1.6071123
-0.054687839 0.13843898 1.605781
-0.065855786 0.13859701 1.6073612
-0.076717339 0.13815764 1.6018977
-0.08793927 0.13839625 1.6043215
-0.099136993 0.13854757 1.6056725
0.034086619 0.12746406 1.6082478
0.023012651 0.12762582 1.6104362
0.011873842 0.12739427 1.6075643
0.00077583594 0.12723894 1.6056139
-0.010351995 0.12778583 1.6125596
-0.021456357 0.12762637 1.6104573
-0.032492481 0.12730841 1.6062862
-0.043767162 0.12784912 1.6130028
-0.054731943 0.12744883 1.607684
-0.065828018 0.12743773 1.6072729
-0.076732054 0.1271117 1.6028026
-0.087740019 0.12701836 1.6012459
-0.098851845 0.12707943 1.6016047
0.034092631 0.11638143 1.6090796
0.023044936 0.11667204 1.6132637
0.011905118 0.11660354 1.6123856
0.00077740441 0.11639026 1.6094365
-0.010303099 0.11610365 1.6054142
-0.02136804 0.11602954 1.6043086
-0.032398339 0.11588211 1.6021305
-0.043453395 0.11587573 1.6018718
-0.054472756 0.11579606 1.6005409
-0.065839618 0.11635736 1.6081045
-0.07721784 0.11677389 1.6135954
-0.088133715 0.11647435 1.6090466
-0.098808371 0.11595879 1.6014385
0.034077171 0.10522859 1.608838
0.022949833 0.10510367 1.6070372
0.011870548 0.10517097 1.6081537
0.00077848387 0.10543051 1.6121886
-0.010355485 0.10555906 1.6141517
-0.021516226 0.1056859 1.6160388
-0.03264327 0.10561712 1.614856
-0.043647926 0.10528814 1.6096077
-0.054750368 0.10528064 1.609272
-0.065728895 0.10507759 1.6058693
-0.077088505 0.10545444 1.6113638
-0.088039726 0.10524802 1.6078105
-0.099310994 0.10542759 1.6101601
0.034082096 0.094142146 1.6095184
0.022995502 0.094203874 1.6107112
0.011864968 0.094032764 1.6078354
0.00077811902 0.094264947 1.6118717
-0.010331613 0.094206475 1.6108409
-0.021440368 0.094204299 1.6107324
-0.032568071 0.094258435 1.6115464
-0.043654233 0.094195403 1.6102881
-0.054993577 0.094593428 1.6169368
-0.066061825 0.09446954 1.6145285
-0.076957904 0.094170734 1.6090537
-0.088160537 0.094275095 1.6104846
-0.099142715 0.094146751 1.6078522
0.034086481 0.08305116 1.6101229
0.022998458 0.083105616 1.6113162
0.011866492 0.08295466 1.6084391
0.00077869662 0.08321052 1.6134759
-0.010371001 0.083414011 1.6174377
-0.02145629 0.08315701 1.612336
-0.032552268 0.083102733 1.6111531
-0.043659844 0.083098143 1.6108931
-0.054798931 0.083143219 1.6115556
-0.065787263 0.082982942 1.6081501
-0.076778784 0.082872361 1.6056682
-0.087901548 0.082913451 1.6061038
-0.098972812 0.082902215 1.6054662
0.034132194 0.072044559 1.6126493
0.022944568 0.07182654 1.6078496
0.011867829 0.071872555 1.6089674
0.00077782926 0.072005823 1.6120076
-0.010321417 0.07191693 1.609977
-0.021445539 0.072003663 1.6118665
-0.032595899 0.072089233 1.6136799
-0.043557536 0.071820073 1.6074276
-0.054603357 0.071770757 1.6060942
-0.065956406 0.07207381 1.6126713
-0.076740146 0.071757041 1.6051978
-0.08823581 0.072101921 1.6126171
-0.099349163 0.072092146 1.6119772
0.03405172 0.060782924 1.6091067
0.023073869 0.061084505 1.6172947
0.011861674 0.060749598 1.6084207
0.00077599415 0.06075016 1.6084639
-0.010322412 0.060824502 1.6104299
-0.021447608 0.060897876 1.6123199
-0.032599051 0.060970251 1.614134
-0.04369577 0.060929492 1.6128745
-0.054844003 0.060962521 1.6135372
-0.065679669 0.060695566 1.6061358
-0.076794796 0.060726643 1.606648
-0.087811716 0.060682025 1.6050885
-0.099054314 0.060785875 1.6074438
0.034033507 0.049664583 1.608484
0.022962745 0.049697209 1.609678
0.011913729 0.049881861 1.6157939
0.00077653414 0.049698927 1.60984
-0.010316898 0.049698584 1.6098076
-0.021422997 0.049728006 1.6106988
-0.032421768 0.049573235 1.6055181
-0.043699279 0.049814977 1.6132524
-0.054646626 0.049658623 1.6079215
-0.06580627 0.049715385 1.6095082
-0.076800957 0.049649131 1.6070246
-0.087980993 0.049704295 1.6084589
-0.098940477 0.049636461 1.6058254
0.034077588 0.038628712 1.6107844
0.0229501 0.038582828 1.6089797
0.011856088 0.038560059 1.6080986
0.00077419594 0.038489182 1.6051426
-0.01030487 0.038560148 1.6081095
-0.02145071 0.038677976 1.6129997
-0.032503814 0.038605228 1.6098166
-0.043970205 0.038935471 1.623548
-0.054818299 0.038695294 1.6132184
-0.065850943 0.038644429 1.6108085
-0.076947682 0.038640421 1.6103212
-0.087878466 0.038564604 1.6067637
-0.09894681 0.038559366 1.6061262
0.19068812 0.027703993 1.6142476
0.17923638 0.02766066 1.6125292
0.16812472 0.027667539 1.6137141
0.1571009 0.027690886 1.6158184
0.14543262 0.027595513 1.6108772
0.13482605 0.02770249 1.61781
0.12330137 0.02762311 1.6137069
0.11183881 0.027543262 1.6095229
0.1006245 0.027513681 1.6082523
0.08959768 0.02753439 1.6098995
0.078552909 0.027554663 1.6114715
0.067656346 0.027642166 1.6169647
0.056273289 0.027526226 1.6103935
0.04509405 0.027477497 1.6077411
0.19115898 0.016573865 1.6183712
0.17935148 0.016517781 1.6136738
0.16782209 0.016481567 1.6108807
0.15720172 0.016535824 1.6169645
0.14588253 0.01651925 1.6160072
0.13491258 0.016542755 1.6189575
0.1233053 0.016485296 1.6138574
0.11218566 0.016488096 1.6146607
0.10075141 0.016440175 1.6103982
0.08987572 0.016482819 1.6150416
0.078314297 0.016393976 1.6066276
0.06745147 0.016446194 1.6121199
0.056586385 0.016518351 1.6195377
0.045373175 0.016499374 1.6178865
0.19116196 0.0053754137 1.6184461
0.1794637 0.005360493 1.6147422
0.16772208 0.0053422102 1.6099604
0.15682077 0.0053499965 1.6130576
0.14579576 0.0053544301 1.6150857
0.13442113 0.0053456961 1.6130527
0.12338271 0.0053499616 1.6149291
0.11218744 0.0053475979 1.6147352
0.10106225 0.0053484216 1.6154629
0.089601949 0.0053295181 1.6101238
0.078460209 0.0053268946 1.6096984
0.067618169 0.0053471052 1.6161906
0.056518104 0.0053508608 1.6176136
0.045401663 0.0053545306 1.6189606
0.19104569 -0.0058197537 1.6174513
0.18001078 -0.0058248332 1.6197106
0.16885112 -0.0058262828 1.6209008
0.15662903 -0.0057886722 1.6110655
0.14508319 -0.0057722139 1.6071159
0.13466789 -0.0058017317 1.6160411
0.12353359 -0.0058028097 1.6169219
0.11205009 -0.0057860692 1.6127387
0.10100036 -0.005790506 1.6144633
0.089877114 -0.0057913051 1.6151143
0.078749523 -0.005792012 1.6156896
0.067700967 -0.005799721 1.6181875
0.056103017 -0.0057541239 1.6056193
0.045262802 -0.0057829306 1.6139611
0.1915074 -0.017052766 1.6213461
0.17967957 -0.016995173 1.6166511
0.16884838 -0.017030459 1.6208227
0.15729742 -0.016993007 1.6179551
0.1458824 -0.016965635 1.6160026
0.13458341 -0.016948335 1.6149668
0.12353157 -0.016961847 1.6168443
0.1125975 -0.016995817 1.6206417
0.10099869 -0.016925881 1.6143857
0.089930661 -0.016938582 1.6160352
0.078603566 -0.01689918 1.6126159
0.067658432 -0.016942443 1.6171106
0.056447979 -0.01692323 1.6155357
0.045067683 -0.016831145 1.6068867
0.19138505 -0.028253647 1.6201985
0.1802209 -0.028261119 1.621466
0.16874027 -0.028216656 1.6196737
0.15710066 -0.028137401 1.6158108
0.14507613 -0.027971802 1.6068858
0.13392097 -0.027960269 1.6068416
0.12352755 -0.028120067 1.6166905
0.11259385 -0.028176382 1.6204876
0.10142835 -0.028180722 1.6212178
0.089872703 -0.028064309 1.6148834
0.078793891 -0.028084923 1.6164573
0.067614831 -0.028070707 1.6159581
0.056480724 -0.028073229 1.6163814
0.045371652 -0.028092494 1.6177285
0.19137582 -0.039463524 1.6199673
0.17846151 -0.039090481 1.6053357
0.16832159 -0.039315961 1.6154654
0.15718888 -0.039325122 1.6165756
0.14604874 -0.039333675 1.6176105
0.1348193 -0.039317608 1.6175723
0.12359703 -0.039300922 1.6174574
0.11238243 -0.039283603 1.6172652
0.1015471 -0.039409649 1.622983
0.090088464 -0.039295066 1.6186467
0.078645401 -0.039155815 1.6132321
0.067570142 -0.039183974 1.6147298
0.056339625 -0.039115459 1.6121556
0.045369435 -0.039238408 1.6174986
0.18293594 -0.051454257 1.6457657
0.17313433 -0.051928774 1.6618884
0.16417517 -0.05274139 1.6888988
0.15298508 -0.052906822 1.6949568
0.14204876 -0.053194702 1.704926
0.13083236 -0.053420231 1.7128317
0.12033822 -0.054014735 1.7326301
0.1120129 0.18331411 1.6054251
0.08973702 0.18325484 1.6058098
0.056326196 0.18308799 1.605319
0.045330618 0.1835501 1.6096386
0.19091536 0.1731324 1.6102976
0.18010578 0.17349336 1.6145271
0.16904224 0.17364132 1.6167071
0.1579572 0.17378664 1.6188117
0.14605111 0.17298175 1.6119277
0.13498557 0.17312156 1.6138768
0.1239754 0.17336403 1.6167428
0.11375453 0.17486799 1.6314397
0.10173298 0.17363031 1.620267
0.090034522 0.17270568 1.6119868
0.078887343 0.17272651 1.6125629
0.067736395 0.17274462 1.613063
0.056616735 0.17286538 1.614481
0.04525904 0.17214011 1.6078709
0.19119255 0.1621833 1.6134173
0.18069468 0.16281641 1.6206182
0.16775018 0.1611827 1.6049854
0.1580904 0.16269721 1.62095
0.14661931 0.16243674 1.6190168
0.13551049 0.16256772 1.6209706
0.12377895 0.16190784 1.614911
0.11295914 0.1624279 1.6206812
0.10138679 0.16186121 1.6154542
0.090056017 0.16158758 1.613127
0.078954339 0.1617057 1.6146973
0.067545906 0.16113099 1.6092323
0.056492168 0.16134259 1.6116443
0.045297593 0.16115712 1.6100022
0.18051614 0.15142241 1.6197113
0.16850483 0.15072635 1.6129806
0.15745547 0.1508529 1.6150833
0.14611828 0.15070198 1.614136
0.13480131 0.15054865 1.6131099
0.12373114 0.15066814 1.6149844
0.11264153 0.15078533 1.6167839
0.10091534 0.14998227 1.6085697
0.089801341 0.15000278 1.6092201
0.078875676 0.15038818 1.6137732
0.067478314 0.14985305 1.6083039
0.056332119 0.1497746 1.6077313
0.045224544 0.14978553 1.6080776
0.19139016 0.13992676 1.6164674
0.17989752 0.13970888 1.6147639
0.16812947 0.13923401 1.6100065
0.157105 0.13935116 1.6121073
0.14623742 0.13963607 1.6161183
0.13491134 0.13949411 1.6150918
0.12405825 0.13985975 1.6199485
0.11184199 0.13860859 1.6058464
0.10161574 0.13981973 1.620494
0.089765005 0.1388188 1.6092108
0.079036549 0.13951577 1.6177471
0.06774047 0.13927536 1.6152616
0.056447461 0.13894767 1.6117028
0.045344885 0.13904287 1.6130457
0.19119433 0.12858298 1.6154035
0.1798224 0.1284606 1.6146879
0.16857164 0.12841427 1.6148851
0.15742221 0.12844405 1.615997
0.14537564 0.12769036 1.6071033
0.1350193 0.12841938 1.616999
0.12332813 0.12789588 1.6109235
0.11241208 0.12815206 1.6147108
0.10070846 0.12746786 1.6064845
0.089892186 0.12787642 1.612111
0.078714505 0.1278137 1.6116905
0.067546658 0.12774894 1.6111937
0.056320094 0.12752563 1.6086274
0.045187164 0.12745674 1.6079772
0.19122763 0.11740283 1.6162428
0.1802911 0.11757631 1.6194918
0.1686011 0.11724883 1.6157229
0.1572582 0.11713338 1.6148494
0.145935 0.11701601 1.6138973
0.13446762 0.11675403 1.6108788
0.12350056 0.11691839 1.6137475
0.11236323 0.11693814 1.614552
0.10072616 0.11638484 1.6073164
0.089798018 0.11661508 1.6109537
0.078487448 0.11634354 1.6075431
0.06759993 0.11671294 1.6130236
0.056606483 0.11700912 1.6174343
0.045333855 0.11673195 1.6137942
0.19102567 0.10608811 1.615023
0.17977296 0.10605155 1.6152964
0.16873045 0.10614235 1.6174775
0.15718742 0.10590884 1.6146171
0.14595823 0.10586722 1.6146576
0.13457127 0.1056948 1.6126319
0.12329406 0.1055852 1.6115218
0.11238118 0.10579684 1.6153117
0.10092769 0.10549006 1.6110606
0.090032384 0.10576299 1.6156969
0.078692786 0.1055174 1.6122863
0.06736251 0.10520541 1.6077999
0.056304488 0.10527945 1.609219
0.045202386 0.10528719 1.6095653
0.19082065 0.094795533 1.6137257
0.17957991 0.09476281 1.6139971
0.16834426 0.094728589 1.6141913
0.15778476 0.095097035 1.6212639
0.14589015 0.094655633 1.6143476
0.13475503 0.094674662 1.6153049
0.12353805 0.094634429 1.615191
0.11198565 0.094303742 1.6100199
0.10106585 0.094491601 1.6137353
0.089935347 0.094504602 1.6143868
0.078414954 0.094053619 1.6069851
0.067330852 0.094063573 1.6074824
0.056312621 0.094187625 1.6098995
0.045403186 0.094599321 1.6172315
0.19096102 0.08367832 1.6153262
0.17982149 0.083700396 1.6165909
0.16857086 0.083670251 1.6167861
0.15722999 0.083587833 1.6159101
0.14590879 0.083504066 1.6149552
0.13477226 0.083520867 1.6159129
0.12317669 0.083230548 1.6108193
0.11234313 0.083448559 1.6156073
0.10095517 0.083257444 1.6123486
0.089561783 0.083013944 1.6080134
0.078617834 0.083177045 1.6115794
0.067505047 0.083185837 1.6120778
0.056319851 0.083091281 1.6105044
0.045353506 0.083352447 1.6158422
0.19109839 0.072543539 1.6168511
0.17962271 0.072430357 1.6151378
0.16869225 0.072536588 1.6183126
0.15715168 0.072376944 1.6154479
0.14619216 0.072480924 1.6184722
0.13421166 0.072054014 1.6094753
0.12319048 0.07211154 1.6113491
0.11256161 0.072432928 1.6191282
0.10133745 0.072399892 1.6188612
0.089901954 0.072188966 1.614527
0.078771278 0.072197758 1.6151024
0.067347057 0.071896084 1.6086149
0.05622245 0.071858339 1.6080379
0.045164298 0.071907826 1.6093826
0.1910004 0.06131709 1.6163152
0.17985864 0.06133328 1.6175804
0.16932407 0.061572425 1.6247333
0.15707089 0.061176196 1.6149088
0.14593904 0.06118948 1.6159425
0.1342245 0.060940411 1.6099287
0.12312686 0.060951728 1.6108068
0.11202329 0.060962066 1.6116089
0.1011617 0.061120886 1.616325
0.089635476 0.060867749 1.6099926
0.078537807 0.060875177 1.6105665
0.067353539 0.060806867 1.6090677
0.056227878 0.060774952 1.6084907
0.045168649 0.06081681 1.6098353
0.19101556 0.050131828 1.6166955
0.18020117 0.050236583 1.6209413
0.16831125 0.050035503 1.6151727
0.15708339 0.050016642 1.615288
0.14550543 0.049874894 1.6113442
0.13374172 0.049640708 1.6043297
0.12321214 0.049863666 1.6121812
0.11196361 0.049811058 1.6109899
0.10116978 0.049971443 1.6167039
0.089862786 0.049886689 1.6143621
0.078495875 0.049740009 1.6099455
0.067358956 0.049714722 1.6094447
0.056370713 0.049810857 1.6128629
0.045172274 0.04972285 1.6102124
0.19044667 0.038825721 1.6120346
0.17922783 0.038812283 1.6123023
0.1681167 0.038821943 1.6134872
0.15661417 0.038736165 1.6106158
0.14524755 0.038673449 1.6086591
0.13432606 0.038728677 1.611605
0.12367275 0.038878188 1.6184647
0.11183345 0.038647547 1.6092969
0.1009289 0.038724683 1.6130157
0.089703441 0.038682561 1.61167
0.078838453 0.038805954 1.617237
0.067487478 0.038691375 1.6127425
0.056270584 0.038623638 1.6101679
0.045119651 0.038579006 1.6085153
0.22645952 0.027983077 1.6278327
0.21290752 0.027688062 1.6114939
0.20155662 0.027662482 1.6109241
0.22660315 0.016710183 1.6289759
0.21343324 0.016564334 1.6156111
0.20205492 0.016549082 1.6150445
0.22715269 0.0054326844 1.6330137
0.2133068 0.0053690565 1.6146942
0.20218106 0.0053706425 1.6161115
0.22742566 -0.0058924099 1.6349937
0.21447447 -0.005848248 1.6236166
0.20230396 -0.0058216634 1.6171024
0.2294696 -0.017378831 1.6497735
0.21408176 -0.01706364 1.6205637
0.2021777 -0.017006615 1.616032
0.23178279 -0.029102743 1.6664543
0.21394515 -0.02827169 1.6194178
0.20290907 -0.028297193 1.6218315
0.23067975 -0.040457997 1.6582937
0.21419436 -0.039536629 1.6211691
0.20277633 -0.039500393 1.620608
0.21547793 -0.051072869 1.6307718
0.20497665 -0.051272489 1.6381551
0.1932226 -0.051163774 1.6355441
0.22754145 0.17550285 1.6296908
0.21549354 0.1749261 1.6252887
0.20253463 0.17350508 1.6129045
0.22704984 0.16381079 1.6269064
0.21334226 0.16199249 1.6096698
0.20209137 0.16194154 1.6101
0.22641824 0.15207368 1.6230534
0.21377797 0.15111314 1.6136991
0.20213597 0.15079102 1.6111667
0.19169895 0.15138271 1.6184416
0.2260555 0.14056669 1.6210912
0.2155064 0.14103414 1.6275349
0.20279157 0.14005755 1.6171014
0.22582549 0.12917177 1.6200367
0.21425107 0.12897761 1.6185738
0.20270714 0.12878133 1.6170291
0.22613741 0.11808275 1.6228558
0.21389937 0.11754935 1.6164484
0.20188229 0.11708506 1.6109406
0.22590025 0.1067033 1.6216459
0.21497038 0.10686522 1.6251278
0.20277447 0.10638089 1.6186333
0.22511372 0.095115349 1.6164017
0.21461193 0.095433146 1.6228487
0.201943 0.094769076 1.6123857
0.22596082 0.084214643 1.6229484
0.21399061 0.083935529 1.6185102
0.20344371 0.084214695 1.6248876
0.22584935 0.072920009 1.6224948
0.21336578 0.07250189 1.6140918
0.2021139 0.072479181 1.6145179
0.22573428 0.061635502 1.621964
0.21338606 0.061319157 1.6145482
0.2027479 0.061486386 1.6199328
0.22670749 0.050605394 1.6292772
0.21379212 0.050224923 1.6179017
0.2022721 0.050148297 1.6163465
0.22631232 0.039241035 1.626613
0.21367589 0.038992804 1.6172148
0.20203899 0.038909592 1.6146661
0.26131338 0.17958321 1.7838761
0.25836647 0.16529572 1.764364
0.2585623 0.15314943 1.7664361
0.25875419 0.14098239 1.7684257
0.25965777 0.12915115 1.7752686
0.26513889 0.11929367 1.8136363
0.26546282 0.10684033 1.8163834
0.26807395 0.095168196 1.8348602
0.26796031 0.082410231 1.8344774
0.2682721 0.069773704 1.8369741
0.26945615 0.044504426 1.8456678
-0.27168691 0.18710411 1.6267947
-0.1102257 0.19403276 1.6012713
-0.12115723 0.1937629 1.5985008
-0.13213702 0.19360898 1.5966471
-0.14300907 0.19333325 1.5937302
-0.15422596 0.1935298 1.5946937
-0.16475254 0.19289182 1.5886651
-0.17671876 0.19391362 1.5963868
-0.18856847 0.19469447 1.6020474
-0.19806926 0.1930982 1.5879126
-0.21034046 0.19422883 1.5963695
-0.22179021 0.1945255 1.5978479
-0.23241822 0.19410755 1.5933487
-0.24329253 0.19392404 1.5907439
-0.2560074 0.19515961 1.5998342
-0.18884891 0.18382934 1.6053118
-0.20019226 0.18400273 1.605958
-0.21103919 0.18372563 1.6025836
-0.23432623 0.18450534 1.6074213
-0.24529086 0.18433169 1.604802
-0.25591972 0.18393187 1.6001463
0.00082050043 0.20489363 1.6943667
-0.010761756 0.20227455 1.6724888
-0.022149101 0.20060422 1.6584768
-0.033344805 0.19893076 1.6443887
-0.044428609 0.1976112 1.6332045
-0.055159286 0.19557489 1.6159931
-0.066261336 0.19532008 1.6135945
-0.077238716 0.19482435 1.6091373
-0.08805012 0.1940878 1.6026238
-0.099747732 0.19525088 1.6118956
-0.010384741 0.18402193 1.6142098
-0.032675587 0.1837862 1.6119287
-0.055107083 0.18421191 1.6153032
-0.066238888 0.18408379 1.6138963
0.036588587 0.20832859 1.7227777
0.024671486 0.20833713 1.7229866
0.012629389 0.20631959 1.7062354
0.17984194 0.18443036 1.61133
0.16889712 0.18469974 1.6144959
0.15743898 0.18440619 1.6126428
0.14628072 0.18444583 1.6136787
0.1347051 0.18392217 1.6096872
0.12371805 0.18418013 1.6125498
0.1012751 0.1840148 1.612102
0.078915372 0.18394989 1.612339
0.067719139 0.18385696 1.6118464
0.22707568 0.18645781 1.6255016
0.21621622 0.18685077 1.6299684
0.20444715 0.18645766 1.6274605
0.19260661 0.18594949 1.6238822
0.25824904 0.18973401 1.7619418
-0.2704643 0.028029766 1.6262329
-0.27047276 0.016727978 1.6263858
-0.26998931 0.0054156152 1.6235012
-0.26950157 -0.0058562476 1.6205395
-0.26965982 -0.017128378 1.6214479
-0.26851344 -0.028276348 1.6143867
-0.27038512 -0.043399666 1.7778107
-0.28588617 -0.043886542 1.796662
-0.27143013 0.17558458 1.6260703
-0.26727432 0.16172725 1.6017015
-0.27139059 0.15287696 1.6273293
-0.27030927 0.14097202 1.621452
-0.27117187 0.13009 1.6272937
-0.27121857 0.11877856 1.6281425
-0.27109858 0.10739721 1.6279294
-0.27097437 0.096024372 1.6276387
-0.27084583 0.084660575 1.6272697
-0.2708756 0.07335037 1.6278089
-0.26895094 0.061590131 1.6164383
-0.26913455 0.050385438 1.6178067
-0.27061418 0.039353874 1.6269897
-0.11008336 0.027493155 1.6066363
-0.12107449 0.027471641 1.6048504
-0.13253403 0.027551111 1.6089693
-0.14308605 0.027444223 1.6020514
-0.1544987 0.027505903 1.6050189
-0.16504309 0.027415093 1.5989536
-0.17659651 0.027492773 1.60276
-0.1878636 0.02751933 1.6035038
-0.19902688 0.027528567 1.603177
-0.21045189 0.027571119 1.604756
-0.2215009 0.027562615 1.6032826
-0.23253952 0.027553689 1.6017339
-0.24520695 0.027729774 1.6109854
-0.2578555 0.027888462 1.6191512
-0.11008687 0.016407743 1.606786
-0.12100381 0.01638481 1.6040027
-0.13205038 0.016381806 1.6031396
-0.14353116 0.016428966 1.6071813
-0.15478833 0.016445598 1.6081551
-0.16647202 0.016502282 1.6130296
-0.1775784 0.016498214 1.6118561
-0.18763901 0.016403208 1.6016672
-0.19891112 0.016418796 1.6023344
-0.2103297 0.016444193 1.6039145
-0.22164342 0.016459253 1.6044233
-0.23411231 0.016554561 1.6127715
-0.24551274 0.016569065 1.613114
-0.25630546 0.016543083 1.6094258
-0.11015631 0.0053248093 1.6078579
-0.12115475 0.005320644 1.6060712
-0.13254033 0.0053327535 1.6091937
-0.14370963 0.0053349608 1.6092476
-0.15469582 0.0053305426 1.6072339
-0.16494921 0.0053031556 1.5981822
-0.17671335 0.0053247293 1.603978
-0.18856403 0.0053462074 1.6096879
-0.19940236 0.0053381892 1.6063788
-0.20968896 0.0053170277 1.5990305
-0.22259584 0.0053610969 1.6114331
-0.23425829 0.0053724162 1.6138361
-0.24492028 0.0053608059 1.6092335
-0.25599784 0.0053589069 1.6075251
-0.11029167 -0.0057755634 1.6098518
-0.12122922 -0.0057675047 1.607067
-0.13245897 -0.0057735336 1.6081953
-0.1430928 -0.0057546655 1.6022733
-0.15412635 -0.0057534263 1.6012595
-0.16576272 -0.0057733497 1.6061392
-0.17649633 -0.0057613035 1.6019883
-0.18833345 -0.005784573 1.6076999
-0.19952434 -0.005786506 1.6073698
-0.21110573 -0.005798961 1.6099373
-0.22232462 -0.0058007091 1.6094501
-0.2335466 -0.005802366 1.6088854
-0.24462207 -0.0058003985 1.6072543
-0.25584197 -0.0058018775 1.6065356
-0.11028988 -0.016882204 1.6097744
-0.12107822 -0.016837923 1.6049954
-0.13221286 -0.016845193 1.6051284
-0.14317857 -0.016831476 1.6031924
-0.15478815 -0.016889989 1.6081505
-0.16576001 -0.016875733 1.6060619
-0.17681891 -0.016871573 1.6048934
-0.18786937 -0.01686715 1.6036491
-0.19952108 -0.016914191 1.6072922
-0.21071588 -0.016919572 1.6068847
-0.22232099 -0.016955709 1.6093724
-0.23340051 -0.016950218 1.607818
-0.2459597 -0.017047789 1.6160758
-0.25677267 -0.017021092 1.6123843
-0.11001549 -0.027919304 1.6056311
-0.1212978 -0.027966157 1.6078341
-0.13285907 -0.028064074 1.6129479
-0.14352636 -0.02797262 1.6070237
-0.15440355 -0.027932266 1.6040159
-0.16595805 -0.028011637 1.6078984
-0.17670472 -0.027953256 1.6037465
-0.1883243 -0.028031697 1.607469
-0.19951469 -0.02804107 1.6071389
-0.21122435 -0.028118577 1.6106977
-0.22190723 -0.028058479 1.6062468
-0.23353538 -0.028117936 1.608654
-0.24446124 -0.02809127 1.6060343
-0.25692028 -0.028235428 1.6132177
-0.11149951 -0.039524462 1.6273462
-0.1228565 -0.039565824 1.6285409
-0.13537307 -0.039942391 1.6436068
-0.14818886 -0.040342174 1.6595736
-0.16141841 -0.040789101 1.6774322
-0.1729663 -0.040779691 1.6762916
-0.18765156 -0.041464716 1.7038927
-0.20007056 -0.041597623 1.7085308
-0.21390361 -0.041993309 1.7239937
-0.22654009 -0.042124692 1.7284422
-0.2574316 -0.043294713 1.7746656
-0.11039052 0.18320605 1.6045399
-0.12163598 0.18339993 1.6057308
-0.13265939 0.18325455 1.6038727
-0.14357504 0.18299437 1.6009504
-0.15455149 0.18284342 1.5989439
-0.16581151 0.18302572 1.5998288
-0.17698257 0.18309309 1.5996478
-0.1886189 0.18360542 1.6033378
-0.19970517 0.18355504 1.6020131
-0.21091065 0.18361373 1.6015983
-0.22144343 0.1831103 1.5961838
-0.11008069 0.17160618 1.6007911
-0.12151811 0.17210436 1.6049609
-0.13269305 0.17217842 1.6050851
-0.14387526 0.17224975 1.6051326
-0.15411696 0.17126568 1.5952038
-0.16554891 0.17164752 1.5980718
-0.17746033 0.17244735 1.6048132
-0.18878148 0.17261298 1.6055402
-0.19975543 0.17246036 1.6032274
-0.21109222 0.17262061 1.6037992
-0.22204022 0.17246276 1.601336
-0.23324852 0.17251253 1.6007679
-0.24490584 0.17287473 1.6030719
-0.25613913 0.17291908 1.6023455
-0.11010697 0.1605588 1.6019244
-0.12139831 0.16082777 1.6041124
-0.13264346 0.1609956 1.6052302
-0.14338167 0.16056977 1.6003225
-0.15453258 0.16063401 1.6002972
-0.16558819 0.16059728 1.5992053
-0.17782728 0.1616409 1.6089194
-0.18882616 0.16150048 1.6066799
-0.19980262 0.16135764 1.6043662
-0.21101344 0.16140914 1.6039522
-0.22128047 0.16076978 1.5965593
-0.2335875 0.16160285 1.6038767
-0.24451682 0.16145025 1.6012614
-0.25557694 0.16139355 1.5995554
-0.11013152 0.14950383 1.602982
-0.12142535 0.14975424 1.6051719
-0.13251057 0.14972699 1.6043057
-0.14350152 0.14960562 1.6023719
-0.15409303 0.14911516 1.5963991
-0.16552334 0.14944775 1.5992724
-0.17754167 0.15023617 1.6070145
-0.18817735 0.14983054 1.601809
-0.19923747 0.14978926 1.6004875
-0.21093129 0.15020362 1.6040279
-0.22214139 0.15024918 1.6035377
-0.23363882 0.15047549 1.6049414
-0.24412391 0.15005885 1.5993711
-0.25547728 0.15018903 1.5996351
-0.11028957 0.1386117 1.6059525
-0.12122722 0.13841867 1.6031749
-0.13253798 0.1386483 1.6052893
-0.14370717 0.13870579 1.6053399
-0.15488312 0.13876106 1.6053135
-0.1650496 0.13796513 1.5952982
-0.17725317 0.13886504 1.6050301
-0.18833111 0.13882887 1.603783
-0.19915645 0.13862091 1.6004827
-0.21058857 0.13883497 1.6020504
-0.22164522 0.13879241 1.6005762
-0.23269153 0.13874777 1.5990264
-0.24462029 0.13920939 1.6033125
-0.25584048 0.13924508 1.6025902
-0.11051358 0.12776397 1.6098443
-0.12154815 0.12766451 1.6080582
-0.13256332 0.12756304 1.6061975
-0.14364658 0.12753776 1.6052554
-0.15472303 0.12751047 1.6042374
-0.16589373 0.1275593 1.604136
-0.17609486 0.12690328 1.5950381
-0.18721549 0.12694827 1.5947895
-0.19919421 0.12753764 1.6013904
-0.21037112 0.12757848 1.6009824
-0.22290593 0.12839742 1.6103746
-0.23373061 0.1282001 1.6068424
-0.24421963 0.12784503 1.601267
-0.25604424 0.12818964 1.6044868
-0.11019479 0.11629824 1.6057024
-0.12164393 0.11663573 1.6098862
-0.13209909 0.11604348 1.601065
-0.14314353 0.11602046 1.6001261
-0.15465528 0.1163523 1.6040766
-0.16551627 0.11618292 1.6009991
-0.17731781 0.11665355 1.6067734
-0.18805422 0.11640925 1.6025534
-0.19947271 0.11659089 1.6042027
-0.21182325 0.11726931 1.6126955
-0.22118376 0.11630739 1.5983654
-0.23277569 0.11655471 1.6007681
-0.24500652 0.11708476 1.6070325
-0.25624409 0.11711463 1.6063088
-0.11048301 0.10547625 1.6104405
-0.12166334 0.10552321 1.6106437
-0.1324452 0.10524567 1.6057975
-0.14360659 0.10528932 1.6058502
-0.15467988 0.10526673 1.6048325
-0.16564423 0.10517801 1.6027468
-0.17680393 0.10521667 1.6025711
-0.18854472 0.10557616 1.6072748
-0.19926037 0.10535352 1.6029793
-0.21121316 0.10577396 1.6085094
-0.22148958 0.10535483 1.6010985
-0.23267013 0.10538524 1.6005377
-0.24504501 0.10592921 1.6077933
-0.25597286 0.10582746 1.6050982
-0.11009294 0.094016939 1.6051462
-0.12115958 0.094001226 1.6043571
-0.13254549 0.094215088 1.6074729
-0.14283465 0.093676575 1.5975808
-0.15384838 0.093656473 1.5965685
-0.16536301 0.093923561 1.6004472
-0.17704605 0.09424676 1.6052361
-0.18776529 0.094049029 1.6010153
-0.19928877 0.094253726 1.6036601
-0.21034211 0.094226174 1.602263
-0.22260496 0.094716035 1.6096923
-0.23256087 0.094224408 1.6002306
-0.2446328 0.094595835 1.6055167
-0.25554186 0.094504818 1.6028237
-0.11017469 0.082991637 1.6067462
-0.12095162 0.082773872 1.6019728
-0.13166836 0.082554877 1.5971284
-0.14311707 0.082793199 1.6011666
-0.15415259 0.082775429 1.6001525
-0.1650791 0.082705438 1.5980697
-0.17685169 0.083041504 1.6038556
-0.18801954 0.083070688 1.6036034
-0.19919205 0.083098553 1.6032742
-0.21049745 0.083175994 1.6038585
-0.2211425 0.082997821 1.599416
-0.23330146 0.083377711 1.6057781
-0.24511053 0.083603628 1.6090864
-0.25588542 0.083472468 1.6054034
-0.11052544 0.07212539 1.6122581
-0.12118863 0.071848363 1.6054885
-0.13184565 0.071614429 1.5996454
-0.1429569 0.071644329 1.5997034
-0.15473902 0.071982004 1.6066465
-0.16601245 0.072053663 1.607541
-0.17697981 0.071991824 1.6053776
-0.18815567 0.072017081 1.6051247
-0.19970211 0.072173461 1.6077693
-0.21000573 0.071887888 1.600425
-0.22238661 0.072306365 1.6088525
-0.23375404 0.072371088 1.6092753
-0.24483952 0.072346583 1.6076429
-0.25591356 0.072320998 1.6059349
-0.1101976 0.060814016 1.6077272
-0.12127475 0.060803842 1.6069376
-0.13153313 0.060419261 1.5961125
-0.14341106 0.060780581 1.6051316
-0.15465894 0.060842171 1.606105
-0.16623165 0.061014723 1.6099827
-0.17710513 0.060925089 1.606824
-0.18713647 0.06057344 1.5966442
-0.19984309 0.061078679 1.6092156
-0.21092705 0.061060794 1.6078144
-0.22159451 0.060930178 1.6033676
-0.23263788 0.060910478 1.6018182
-0.24456456 0.06111329 1.6061223
-0.25609344 0.061203353 1.6073773
-0.10980026 0.049537305 1.6021209
-0.12120993 0.04968169 1.6063179
-0.13251922 0.049764164 1.6084417
-0.1427177 0.049449008 1.5975432
-0.15448152 0.04968252 1.6044924
-0.16604152 0.049823608 1.6083724
-0.17733614 0.049872342 1.609189
-0.1885342 0.049889769 1.6089343
-0.19924887 0.049784463 1.604634
-0.21042863 0.049800359 1.6042281
-0.22215419 0.049937345 1.6077065
-0.2340792 0.05010394 1.6120894
-0.24473286 0.049995612 1.6074895
-0.25611356 0.050038792 1.6077569
-0.11028119 0.038648419 1.6094031
-0.12106869 0.038547061 1.6046251
-0.13195854 0.038492549 1.6017685
-0.14334354 0.038579732 1.6048139
-0.1551556 0.038761083 1.6117598
-0.16564535 0.038609933 1.6046962
-0.17691351 0.038647804 1.6055158
-0.18808518 0.038661368 1.6052644
-0.19938351 0.038698003 1.6059282
-0.2106995 0.038734011 1.6065128
-0.22135489 0.03865106 1.6020663
-0.23281319 0.038709532 1.603487
-0.24534447 0.038932942 1.6117468
-0.25612965 0.038871869 1.60806
0.034142066 0.0275806 1.6140089
0.022937082 0.027480224 1.6082054
0.011900466 0.027582448 1.6143231
0.00077662151 0.027515016 1.6103671
-0.010299021 0.027464058 1.607335
-0.02146491 0.027581872 1.6142253
-0.032445405 0.027462343 1.6070433
-0.043516509 0.027460825 1.6067842
-0.054619137 0.02747578 1.6074487
-0.065651856 0.027456457 1.6060392
-0.076762304 0.027470522 1.6065521
-0.087828599 0.027467232 1.6059906
-0.09889067 0.027463507 1.6053537
0.034101263 0.016439734 1.6121597
0.02289544 0.016369728 1.6053555
0.011857041 0.016400442 1.6084739
0.00077569101 0.016400592 1.6085168
-0.010312041 0.016410576 1.6094842
-0.021333909 0.016359704 1.6043769
-0.032626364 0.016480241 1.6161906
-0.043330207 0.016317766 1.5999365
-0.054587252 0.016387278 1.606599
-0.066058487 0.016486801 1.6161802
-0.076953836 0.016434617 1.6106972
-0.087993644 0.016422553 1.6091356
-0.099076487 0.016420323 1.6084974
0.03424843 0.0053548389 1.6192325
0.022994675 0.0053321347 1.6124287
0.011871831 0.0053257197 1.610548
0.00077427033 0.0053093913 1.6055909
-0.010324896 0.0053290064 1.6115583
-0.02140009 0.0053223334 1.6094503
-0.032426961 0.0053122984 1.6062671
-0.043545403 0.0053185546 1.6080073
-0.054554474 0.0053116241 1.6056734
-0.065897711 0.0053340802 1.6122577
-0.076718695 0.0053138821 1.6057769
-0.088157289 0.0053361612 1.6122055
-0.099078067 0.0053256173 1.6085718
0.034059897 -0.0057690721 1.6102329
0.022980543 -0.0057728598 1.6114273
0.011879129 -0.0057730065 1.6115464
0.00077522534 -0.0057588662 1.6075896
-0.010293165 -0.0057552783 1.6065571
-0.021400085 -0.0057657901 1.6094489
-0.032426953 -0.0057549188 1.6062654
-0.043733083 -0.0057865307 1.6150032
-0.054655358 -0.0057648309 1.6086702
-0.065371804 -0.0057324008 1.599267
-0.076671407 -0.0057530873 1.6047765
-0.087886848 -0.0057630376 1.6072114
-0.09913893 -0.0057728938 1.6095684
0.034101229 -0.016883969 1.6121552
0.02296604 -0.016863927 1.6103504
0.011878932 -0.016874727 1.6114691
0.00077712315 -0.016874881 1.6115123
-0.010350107 -0.016916253 1.6154795
-0.0214129 -0.016864004 1.6103714
-0.032586355 -0.016904825 1.6141865
-0.04365192 -0.016883148 1.611927
-0.054553565 -0.016819723 1.6055951
-0.066017963 -0.016921936 1.6151762
-0.07667014 -0.016816504 1.6046995
-0.087993577 -0.016866324 1.6091313
-0.099137299 -0.016874399 1.6094911
0.034246735 -0.028111305 1.6189995
0.022937045 -0.027923338 1.6081979
0.011863942 -0.027941242 1.6093165
0.00077805307 -0.028010279 1.613359
-0.010311696 -0.027941307 1.6093271
-0.021385863 -0.027923463 1.608219
-0.03248534 -0.027939565 1.6090351
-0.04362369 -0.027972398 1.6107746
-0.054518156 -0.027867254 1.6044432
-0.065813549 -0.027967948 1.6100278
-0.076714918 -0.027896296 1.6055459
-0.087990701 -0.027961701 1.6089783
-0.099194959 -0.027992269 1.6103359
0.034161292 -0.03916863 1.6147718
0.023119524 -0.039314348 1.6209645
0.011929069 -0.039243296 1.6180851
0.0007794479 -0.03919562 1.616129
-0.010323881 -0.039075263 1.6110977
-0.021490166 -0.039194446 1.6159877
-0.032623678 -0.039192908 1.615803
-0.043809235 -0.039238762 1.6175412
-0.054784536 -0.039115898 1.6122086
-0.066133939 -0.039256532 1.6177901
-0.077372901 -0.039300483 1.6192981
-0.088905767 -0.039463807 1.6257199
-0.10004261 -0.039434452 1.6240772
0.034153018 0.18333615 1.6079228
0.022944635 0.18267044 1.6021565
0.01191156 0.18346049 1.6092308
0.00077878096 0.18334994 1.6082804
-0.010359413 0.1835731 1.6102351
-0.02136666 0.18244685 1.6001905
-0.032515999 0.18288858 1.6039809
-0.043691479 0.18321516 1.606701
-0.077023759 0.18316761 1.6054658
-0.088289775 0.18348241 1.6078792
-0.099045485 0.18278496 1.6012878
0.034203544 0.17246616 1.6111243
0.023049172 0.17236783 1.6103253
0.01188545 0.17195046 1.6064671
0.00077659608 0.17174116 1.6045214
-0.010330389 0.17195083 1.6064777
-0.021477262 0.17226318 1.6093521
-0.03246443 0.17151855 1.6022083
-0.04375615 0.17235245 1.6099013
-0.054953285 0.17255108 1.6115527
-0.06597314 0.17221995 1.6081589
-0.076996192 0.17199151 1.6056844
-0.088042334 0.17186575 1.6041281
-0.099192239 0.17194805 1.6044823
0.034107178 0.16087042 1.6072887
0.023026492 0.16107431 1.6094736
0.011910166 0.16117701 1.6105877
0.00077678211 0.16068526 1.6056552
-0.010358205 0.161276 1.6115934
-0.021364084 0.16028593 1.6015344
-0.032412335 0.16018106 1.600356
-0.043739863 0.16115856 1.6100447
-0.054798551 0.1609499 1.6077193
-0.06602931 0.16123179 1.6102905
-0.077061795 0.16101801 1.607814
-0.088279352 0.1611961 1.6092378
-0.099215925 0.1608787 1.6056176
0.034156647 0.1499778 1.6103395
0.023045752 0.15007582 1.6115302
0.011912833 0.15007961 1.6116496
0.00077695615 0.14962173 1.606714
-0.010341513 0.14989622 1.6096685
-0.021447768 0.14980096 1.6085645
-0.032619216 0.15007064 1.6113669
-0.043642554 0.14969507 1.6071249
-0.054877982 0.15005176 1.6107699
-0.065963283 0.14994691 1.6093627
-0.077031806 0.14983967 1.6078801
-0.088191047 0.14991368 1.6083111
-0.098994821 0.14943452 1.6027015
0.033996388 0.13820036 1.6033555
0.023008225 0.13871635 1.6095273
0.011856975 0.13829461 1.6046648
0.00077902607 0.13889123 1.6116825
-0.010337329 0.13872017 1.6096572
-0.021439077 0.13863194 1.6085523
-0.032546137 0.13862653 1.6083682
-0.043705188 0.13878898 1.6101003
-0.054687839 0.13843898 1.605781
-0.065936588 0.13876706 1.6093524
-0.076764546 0.13824265 1.602893
-0.08793927 0.13839625 1.6043215
-0.099197812 0.13863257 1.606667
0.034170318 0.12777704 1.6122347
0.022956213 0.12731282 1.6064489
0.011895723 0.12762904 1.6105551
0.00077488169 0.12708244 1.6036201
-0.010326638 0.12747282 1.6085719
-0.021443203 0.12754813 1.6094605
-0.032572366 0.12762141 1.6102731
-0.043660019 0.12753615 1.6090164
-0.054631148 0.12721412 1.6046948
-0.065706789 0.12720303 1.6042845
-0.077015378 0.12758103 1.6087775
-0.088064186 0.12748764 1.6072186
-0.099095166 0.12739225 1.6055851
0.034071703 0.11630999 1.6080823
0.023016712 0.11652914 1.611269
0.011883234 0.11638919 1.6093935
0.00077644998 0.11624736 1.6074415
-0.010296758 0.1160322 1.6044167
-0.02136804 0.11602954 1.6043086
-0.032538161 0.11638222 1.6091112
-0.043560557 0.11616149 1.6058601
-0.054640777 0.11615323 1.6055253
-0.065677948 0.11607165 1.6041179
-0.076840013 0.11620252 1.6056248
-0.087917566 0.11618869 1.6050626
-0.098504163 0.11560177 1.5964606
0.034077171 0.10522859 1.608838
0.022921603 0.10497439 1.6050416
0.011899732 0.10542954 1.6121453
0.00077848387 0.10543051 1.6121886
-0.010330119 0.10530049 1.6101601
-0.021384628 0.10503951 1.6060605
-0.032623291 0.10555249 1.6138583
-0.043594338 0.10515887 1.6076126
-0.054851197 0.10547452 1.612264
-0.065850168 0.10527145 1.6088605
-0.076852329 0.10513135 1.6063797
-0.087985687 0.10518342 1.606814
-0.09937185 0.10549219 1.6111562
0.034040228 0.094026491 1.6075221
0.022924921 0.093914732 1.60572
0.011813889 0.093627952 1.6008474
0.00077668694 0.094091453 1.6088767
-0.010318928 0.094090812 1.6088443
-0.02138772 0.093972981 1.6067395
-0.03264799 0.094489746 1.615539
-0.043547038 0.093964107 1.6062963
-0.054758273 0.09418869 1.6099524
-0.066021398 0.094411723 1.613531
-0.076816179 0.093997307 1.6060622
-0.088106483 0.094217293 1.6094878
-0.099081852 0.094088957 1.6068558
0.034002729 0.082847103 1.6061291
0.023012575 0.08315663 1.6123148
0.01187379 0.083005674 1.6094377
0.00077965151 0.083312556 1.6154733
-0.010364657 0.083362989 1.6164391
-0.02145629 0.08315701 1.612336
-0.032532286 0.083051719 1.6101546
-0.043552637 0.082894094 1.6068997
-0.054597218 0.082837172 1.6055667
-0.065787263 0.082982942 1.6081501
-0.076967776 0.083076358 1.6096585
-0.087901548 0.082913451 1.6061038
-0.099094547 0.083004192 1.6074599
0.034111254 0.072000355 1.6116505
0.022916328 0.071738139 1.6058518
0.011824036 0.071607344 1.6029735
0.00077735179 0.071961626 1.6110086
-0.010296041 0.071740121 1.605981
-0.02136655 0.071738459 1.6058729
-0.032615885 0.072133437 1.6146786
-0.043798778 0.072217844 1.6164155
-0.054603357 0.071770757 1.6060942
-0.065754212 0.071852855 1.6076802
-0.076976411 0.071977966 1.6101873
-0.088073611 0.071969382 1.6096244
-0.099410042 0.07213632 1.6129744
0.03403078 0.060745545 1.6081076
0.022989143 0.060860205 1.6112995
0.011832477 0.060600061 1.6044236
0.00077599415 0.06075016 1.6084639
-0.010341446 0.060936656 1.6134278
-0.021421276 0.060823105 1.6103215
-0.032519102 0.060820721 1.6101376
-0.043534927 0.060705215 1.6068809
-0.054810379 0.060925141 1.6125385
-0.065679669 0.060695566 1.6061358
-0.07646399 0.060465053 1.5996606
-0.088082075 0.060868852 1.6100776
-0.098871663 0.060673796 1.6044515
0.03399162 0.049603458 1.6064855
0.022934502 0.049636081 1.6076791
0.011891828 0.049790163 1.6127954
0.00077510142 0.049607228 1.6068414
-0.010278828 0.049515191 1.6038105
-0.021370327 0.04960575 1.606701
-0.032421768 0.049573235 1.6055181
-0.043672469 0.049784414 1.6122532
-0.054747514 0.049750302 1.6109184
-0.065725379 0.049654271 1.6075108
-0.076564647 0.049496364 1.6020325
-0.087494314 0.049429346 1.5994762
-0.098818704 0.04957537 1.6038301
0.034014754 0.038557485 1.6077859
0.02290773 0.0385116 1.6059809
0.011841487 0.038512569 1.6060992
0.00077706156 0.038631648 1.6111408
-0.01030487 0.038560148 1.6081095
-0.021371702 0.038535517 1.6070018
-0.032563783 0.038676456 1.6128151
-0.043782525 0.038769282 1.6165526
-0.054784667 0.038671557 1.6122192
-0.065891393 0.038668167 1.6118073
-0.077042207 0.038687889 1.6123184
-0.087824389 0.03854087 1.6057655
-0.098703243 0.038464449 1.6021347
