ply
format ascii 1.0
comment PCL generated
element vertex 1421
property float x
property float y
property float z
element camera 0
property float view_px
property float view_py
property float view_pz
property float x_axisx
property float x_axisy
property float x_axisz
property float y_axisx
property float y_axisy
property float y_axisz
property float z_axisx
property float z_axisy
property float z_axisz
property float focal
property float scalex
property float scaley
property float centerx
property float centery
property int viewportx
property int viewporty
property float k1
property float k2
end_header
0.053923037 -0.016166247 1.5425833
0.043401591 -0.016208921 1.5469131
0.032802533 -0.016240967 1.5501721
0.064840674 -0.026919 1.5490254
0.053921279 -0.02680108 1.5424367
0.043400176 -0.02687183 1.5467663
0.03280146 -0.026924957 1.5500249
0.064449519 0.068802826 1.5387434
0.053732894 0.06867642 1.5361514
0.043026835 0.068504691 1.5324875
0.032645456 0.068906419 1.5417343
0.064207338 0.057966471 1.533186
0.053807244 0.058158565 1.5385816
0.043114267 0.058050711 1.5359156
0.03250201 0.058016665 1.5351746
0.064543702 0.047636911 1.5415348
0.054019053 0.047732856 1.5449355
0.043284312 0.047644697 1.5422704
0.032567449 0.047525186 1.5385321
0.064630643 0.037053522 1.5438211
0.053953357 0.037033115 1.5432268
0.04325933 0.036988363 1.5415601
0.032506708 0.036848038 1.535822
0.06467516 0.026424153 1.5450368
0.053921364 0.026375774 1.5424439
0.043289181 0.026377721 1.5427755
0.032613002 0.026345396 1.5410354
0.1238234 -0.039372899 1.620448
0.11286299 -0.039451584 1.6242467
0.16873214 -0.039411854 1.6194432
0.15603872 -0.039037377 1.6046343
0.14498009 -0.039045867 1.6056615
0.13498381 -0.039365586 1.619565
0.1021037 -0.03962566 1.6319631
0.090803884 -0.039607119 1.6316233
0.080140188 -0.039900038 1.6441871
0.11802294 0.015779072 1.5440606
0.10744832 0.015791841 1.545827
0.096545704 0.015753906 1.5425318
0.085913047 0.015756082 1.5431544
0.075324468 0.015768098 1.5447029
0.11810027 0.0051209112 1.5451291
0.10738137 0.0051185084 1.5449008
0.09679462 0.0051225703 1.5465953
0.085969441 0.0051134564 1.5442241
0.075229213 0.0051075323 1.5427767
0.11810023 -0.0055475854 1.5451276
0.10744999 -0.0055485284 1.5458972
0.096794583 -0.0055493824 1.5465939
0.085969411 -0.0055395095 1.5442225
0.075325631 -0.0055401851 1.5447727
0.11840015 -0.016257262 1.5490419
0.10758554 -0.016239297 1.5478178
0.096669294 -0.016200339 1.5445235
0.086078063 -0.016212938 1.5461451
0.075517289 -0.016235653 1.5486938
0.11884905 -0.027055042 1.5548764
0.10771936 -0.026956551 1.5496656
0.097593866 -0.027115352 1.5593457
0.086240374 -0.026930051 1.5489932
0.075514831 -0.026916148 1.5485466
0.11783437 0.068976261 1.5406209
0.10755125 0.069208778 1.5463718
0.096638456 0.069042727 1.5430809
0.085940547 0.06900806 1.5427065
0.075396739 0.069104835 1.5452522
0.11822291 0.058524117 1.5460376
0.10749293 0.058496688 1.5458107
0.096647754 0.058393609 1.5435158
0.085783735 0.058252193 1.5401477
0.075307585 0.05837141 1.5436913
0.1183078 0.047878891 1.5473969
0.1074329 0.047795407 1.5451765
0.096593641 0.047711123 1.5428801
0.085680559 0.047564957 1.5385128
0.074976102 0.047509652 1.5370646
0.11861718 0.037288904 1.5516746
0.10709649 0.037010543 1.5404792
0.096723534 0.037111156 1.5451651
0.08579611 0.036997616 1.5407976
0.075366668 0.037097067 1.545341
0.11764189 0.026355218 1.5389315
0.10717028 0.026393512 1.5416931
0.096666314 0.026431397 1.5443839
0.085580096 0.026299741 1.5370206
0.074984513 0.026302949 1.5375682
0.16053441 0.015765853 1.5402594
0.15039603 0.015819944 1.546295
0.13964823 0.015813299 1.546289
0.12940091 0.015866922 1.552188
0.16115279 0.0051329681 1.5462989
0.15059012 0.0051374352 1.5483572
0.13956136 0.0051254686 1.5453643
0.12899163 0.0051297741 1.5472769
0.16135804 -0.0055677304 1.5482868
0.15049422 -0.0055619436 1.5473607
0.13956131 -0.0055525224 1.5453626
0.12890933 -0.0055536428 1.5462787
0.16166334 -0.01630576 1.5511962
0.15068345 -0.016278494 1.5492766
0.14018248 -0.016302753 1.5522604
0.12915401 -0.016264599 1.549194
0.16186339 -0.027066708 1.5530375
0.1504869 -0.02695285 1.5471387
0.13955452 -0.026907191 1.5451413
0.12914982 -0.026964141 1.5490466
0.16171472 0.069536291 1.5507381
0.15092312 0.069508344 1.5508106
0.14040503 0.069611706 1.5537939
0.12870175 0.069095917 1.5427678
0.16162752 0.058773682 1.5501819
0.1504584 0.058600746 1.5462748
0.139439 0.05846414 1.5432835
0.12887856 0.05851325 1.5451944
0.16092198 0.047838822 1.5435866
0.15085372 0.048033066 1.5506177
0.13989536 0.047951933 1.5486239
0.12831309 0.047625769 1.5385842
0.16093223 0.037162885 1.5438766
0.15000072 0.037100427 1.541953
0.1389247 0.036989931 1.5379614
0.12914385 0.037234552 1.5488364
0.16083726 0.026468275 1.5430993
0.14991203 0.026423762 1.5411745
0.13982193 0.026530897 1.5481365
0.12939681 0.026586952 1.5520432
0.17705351 0.016306143 1.592801
0.1783694 0.0053278068 1.6048023
0.1812145 -0.0058637834 1.6306444
0.17460729 0.059542529 1.5699021
0.17604353 0.049077511 1.5831871
0.17682062 0.038290996 1.5904406
0.17836098 0.027525567 1.6045784
0.18361895 -0.017367784 1.6524329
0.028920002 -0.13300407 2.0290742
0.07074035 -0.14678273 2.0251048
0.0708315 -0.16094255 2.0270448
0.042958453 -0.16119915 2.0308108
0.070921481 -0.17513549 2.0288866
0.056937192 -0.17514831 2.0293226
0.042908326 -0.17498772 2.0276711
0.084884681 -0.18906768 2.0271125
0.028159646 -0.061488688 1.9774526
0.22288324 0.019324422 1.8895078
0.22253808 0.0062577007 1.8866154
0.21679243 0.06959714 1.8366565
0.21797152 0.057206392 1.8470156
0.22042547 0.044937398 1.868214
0.22090074 0.032093413 1.8724489
0.23101743 -0.020570934 1.9590244
-0.020134451 0.098898731 1.5112674
0.00073623302 0.12074397 1.5228684
-0.0096990522 0.11972585 1.5098774
0.022028871 0.11152789 1.5414549
0.011379892 0.11145926 1.5405716
0.00074256677 0.11117449 1.536623
-0.0098529328 0.11103081 1.534597
-0.020433845 0.11095682 1.5334963
0.021919489 0.100385 1.5341971
0.011359829 0.1006461 1.5383021
0.00074173143 0.1004531 1.5353496
-0.0098481737 0.10038776 1.5343206
0.02196501 0.089982338 1.5378407
0.011339582 0.089868955 1.5359578
0.00074374815 0.090101101 1.5399922
-0.0098876515 0.090158314 1.5409595
-0.020479565 0.089982741 1.537861
0.021981951 0.079432435 1.5394171
0.011362933 0.07943444 1.5395308
0.00074384385 0.079486199 1.540571
-0.0098889228 0.079536662 1.5415382
-0.020548018 0.079636864 1.5434319
0.021991869 0.16446105 1.5357509
0.011382633 0.16467604 1.5378535
0.00074322481 0.16436124 1.5349115
-0.0098870257 0.16457097 1.5368693
-0.020557184 0.16488348 1.5397483
0.022025341 0.15407108 1.5388268
0.011392649 0.1541736 1.5399358
0.00074340287 0.15378043 1.5359967
-0.0098957289 0.15407529 1.5389509
-0.020496374 0.15377586 1.535862
0.022058479 0.14364663 1.541833
0.011366039 0.14319101 1.5369687
0.00074547727 0.14355969 1.540993
-0.0098979436 0.14346685 1.5399657
-0.020474663 0.14300434 1.5348836
0.022063069 0.13301802 1.5427767
0.011397572 0.13293633 1.5418948
0.00074563239 0.13293754 1.5419363
-0.0099190185 0.13310672 1.5438976
-0.020505229 0.13259336 1.5378157
0.022067312 0.12238307 1.5436484
0.011407058 0.12238615 1.5437623
-0.020430241 0.12152285 1.5327033
0.064497121 0.11135586 1.5382797
0.053841818 0.11129439 1.5376866
0.043419514 0.11180264 1.5449972
0.032564845 0.11116605 1.5362822
0.064548843 0.10081108 1.5400004
0.05388502 0.10075548 1.5394073
0.04323224 0.10069825 1.5387411
0.032591004 0.10063938 1.538002
0.064806461 0.090536907 1.5466368
0.053892802 0.090140276 1.5400586
0.043460507 0.090551674 1.5473756
0.03257478 0.089978613 1.5376546
0.064566441 0.079564624 1.5412312
0.053796001 0.079367727 1.5376431
0.043493845 0.079934686 1.5489552
0.032620843 0.079480164 1.5402294
0.064678133 0.16494529 1.5395387
0.054165646 0.16538158 1.5439191
0.043291256 0.16465576 1.5372939
0.032635532 0.16455971 1.5365587
0.0646936 0.15432681 1.5406278
0.054005962 0.15424193 1.5400383
0.043273892 0.15395732 1.5373863
0.032601528 0.15376884 1.5356556
0.064666718 0.14360918 1.5406497
0.053983506 0.14353016 1.5400593
0.043366764 0.14363249 1.5413866
0.032713406 0.14364071 1.5416462
0.06472151 0.13306834 1.5425886
0.053787451 0.13239995 1.5350277
0.043375779 0.13300492 1.5423303
0.032594692 0.13250226 1.536613
0.064692572 0.12235109 1.5424644
0.054074202 0.12244025 1.5438656
0.043189943 0.1218233 1.5362257
0.032705579 0.12229977 1.5424646
0.022065962 0.20765468 1.5376233
0.011428192 0.20805743 1.540711
0.00074954034 0.2085894 1.5447172
-0.0098823439 0.20699772 1.532792
-0.020560561 0.20752311 1.5366527
0.022030359 0.19667695 1.5360278
0.011380672 0.19655612 1.5351498
0.00074547942 0.19680943 1.5371754
-0.0098853251 0.19643079 1.5341679
-0.020566763 0.19692937 1.5380322
0.022008486 0.18584958 1.5353481
0.011369363 0.18573523 1.534469
0.00074664585 0.18645082 1.5404679
-0.0099261375 0.18656853 1.5414292
-0.02049383 0.18561244 1.5333828
0.022000352 0.17515267 1.5355862
0.011379729 0.17526928 1.5366937
0.00074494164 0.17538308 1.5377289
-0.0099098301 0.1756063 1.5396849
-0.020486237 0.17492907 1.5336194
0.065308027 0.20958827 1.5512943
0.055036478 0.21146174 1.5655715
0.044128988 0.21121205 1.5639282
0.032766283 0.20791125 1.5394185
0.064956062 0.19775757 1.5437671
0.054052729 0.19702066 1.5382246
0.043422282 0.19716074 1.5395489
0.032797057 0.19742343 1.5417925
0.064809404 0.18663408 1.5411117
0.053999178 0.18617477 1.5375482
0.043351606 0.18618831 1.5378803
0.032660171 0.18596093 1.5361544
0.064620338 0.17544374 1.5373843
0.054151837 0.17602025 1.5427545
0.043363336 0.17558429 1.5391142
0.032689914 0.17548211 1.5383803
0.11814737 0.11185049 1.5431312
0.10742419 0.111798 1.5429058
0.096585877 0.11160093 1.5406158
0.08594875 0.11161627 1.5412387
0.075114757 0.11134412 1.5378034
0.11824165 0.10125846 1.5448529
0.10764717 0.10134019 1.5466187
0.096601337 0.10096814 1.5413408
0.086072497 0.10111123 1.5439565
0.075223178 0.10086507 1.5405207
0.11795697 0.090359129 1.5415257
0.1066334 0.08979658 1.5323344
0.09655343 0.09027271 1.5409971
0.086029902 0.090400733 1.5436132
0.075378604 0.090411715 1.5441638
0.11767032 0.079509892 1.5381224
0.10760783 0.079931185 1.5468599
0.096874923 0.079892471 1.5465608
0.085985914 0.079699509 1.5431964
0.075099066 0.079454221 1.5387594
0.11832646 0.1654647 1.5423743
0.10799827 0.16601925 1.5481057
0.096609287 0.16488558 1.5378882
0.085914582 0.16480273 1.5375181
0.075277492 0.16482262 1.5380679
0.11827934 0.15471412 1.5424747
0.10788694 0.15513441 1.5472164
0.096694104 0.15436946 1.5399702
0.086484551 0.15517928 1.5485423
0.075343624 0.15431061 1.5401502
0.11838101 0.14415327 1.5444866
0.10749964 0.14390224 1.5422776
0.096653923 0.14364888 1.5399933
0.085954286 0.14357671 1.5396219
0.075167842 0.14331865 1.5371882
0.11833017 0.13340206 1.5444403
0.10711048 0.1327447 1.5372591
0.096735716 0.13310498 1.5419314
0.086027086 0.13303822 1.5415602
0.075424276 0.13313936 1.543106
0.11790048 0.12226721 1.5393494
0.10754249 0.12260062 1.5440959
0.096507125 0.12215018 1.538823
0.085933633 0.12224516 1.5404407
0.075294234 0.12225999 1.5409908
0.17230974 0.1123713 1.5471164
0.16172987 0.11247045 1.5492477
0.15074567 0.11228254 1.547336
0.13961709 0.11195008 1.5433607
0.1289607 0.11197254 1.544277
0.17310256 0.10211655 1.55479
0.16185816 0.10181922 1.5509713
0.15067387 0.10152017 1.5470722
0.1399063 0.10147761 1.5470699
0.12865242 0.10104603 1.5410264
0.172143 0.090838403 1.5465189
0.16177872 0.091034114 1.5506362
0.15079126 0.090882048 1.548722
0.1401934 0.090959497 1.5507088
0.12867092 0.090400152 1.5416795
0.17293052 0.080492899 1.554051
0.1616967 0.080258258 1.5502272
0.15042722 0.079971299 1.5453293
0.13896498 0.079530105 1.5373666
0.12901627 0.079953782 1.5462412
0.17267874 0.16633898 1.5473137
0.16187075 0.16627473 1.5474662
0.15154706 0.16673411 1.5524931
0.13982859 0.16561188 1.5425954
0.12940222 0.1659608 1.5464858
0.17337513 0.15622106 1.5543467
0.16098689 0.15468419 1.5396552
0.15129596 0.15570477 1.5506226
0.14039531 0.1555413 1.5496358
0.12976156 0.15567091 1.5515488
0.17363206 0.14564782 1.5573553
0.16174005 0.14467528 1.5476077
0.15037236 0.14406681 1.5417364
0.14042652 0.14483167 1.5506604
0.1290511 0.14412671 1.5436428
0.17235625 0.1338523 1.5464276
0.16136329 0.13363069 1.5445937
0.15097781 0.13391638 1.5486335
0.14009972 0.13377544 1.5476422
0.12891345 0.13329248 1.5426034
0.17249833 0.12322847 1.5482953
0.1619067 0.12333706 1.5504273
0.15091082 0.12313127 1.5485183
0.13977058 0.12276717 1.5445466
0.12902027 0.1227136 1.5444701
0.1210544 0.21302082 1.5748354
0.11000055 0.21279158 1.5736464
0.099153623 0.21295623 1.575349
0.086697139 0.20927644 1.5482775
0.076588117 0.21102361 1.5617024
0.11905877 0.19875398 1.5495428
0.10797946 0.19815896 1.5453699
0.097147949 0.19793767 1.5440897
0.086613454 0.19834164 1.5476875
0.075985976 0.19861689 1.5502237
0.11811403 0.18650711 1.5379914
0.1073938 0.18641949 1.5377704
0.097113959 0.18716125 1.5444126
0.086144045 0.1865921 1.5400816
0.075478517 0.18661456 1.5406331
0.11867294 0.17666943 1.5461634
0.10735426 0.17569004 1.5380147
0.09683159 0.17594102 1.5406944
0.08594764 0.17551641 1.5373499
0.075595148 0.17621054 1.543855
0.16163826 0.19821338 1.5427481
0.15104268 0.19838449 1.5448018
0.14042647 0.19855255 1.5467838
0.12929785 0.19796394 1.5427619
0.17357144 0.18880086 1.5537804
0.16178647 0.18765947 1.5450515
0.15108557 0.18770266 1.5461189
0.13993329 0.18714879 1.5421684
0.13023733 0.18861218 1.5549604
0.17274435 0.17715169 1.54713
0.16193229 0.17708327 1.5472836
0.15093482 0.17678796 1.5453846
0.13997091 0.17648977 1.5434085
0.12945151 0.1767491 1.5463078
0.14677764 0.21876274 1.6164726
0.13385203 0.21602637 1.5966917
0.17141432 0.22157608 1.6360073
0.16007647 0.22162691 1.6371381
0.17448126 0.070357136 1.5684659
0.17472278 0.2009258 1.5633025
0.20235172 0.21906623 1.7049428
0.20229302 0.2071519 1.705411
0.20269498 0.19568916 1.7097446
0.20263009 0.18375596 1.7100518
0.20314209 0.17231975 1.7152183
0.013687654 0.26198453 1.8472158
0.00089259376 0.26115119 1.841324
-0.01183355 0.26059231 1.8373257
-0.024544099 0.26044714 1.8362114
0.052251659 0.26292738 1.8534722
0.039749671 0.26517057 1.8696253
0.026521437 0.26239586 1.8500491
0.066843323 0.27001017 1.9035442
0.11971114 0.270307 1.9039664
0.10713037 0.27187493 1.9156141
0.093433902 0.27065444 1.9073981
0.080474317 0.27151802 1.9139267
0.16144095 0.27392805 1.9277574
0.14816777 0.27411714 1.9298005
0.13432664 0.27318871 1.9238508
0.014645508 0.30769286 1.9749031
0.00095145294 0.30555671 1.9611207
-0.012741967 0.3079991 1.9768927
0.014454191 0.29016483 1.950246
0.00095797033 0.2939643 1.97602
-0.012582008 0.29060352 1.9532264
0.014731876 0.36457989 1.9805222
-0.012790672 0.3504366 1.9800214
0.014698351 0.32253984 1.980655
0.00096061913 0.32222372 1.9787343
-0.01273103 0.32142398 1.9737579
0.0009694632 0.36673933 1.9923805
-0.01294954 0.36871347 2.0031607
0.014861361 0.35389519 1.9997061
0.00096938317 0.35286054 1.9938506
0.014729133 0.33698091 1.9833384
0.00096453464 0.33731639 1.9853641
-0.012795695 0.33681539 1.9823656
0.069312766 0.30732769 1.971781
0.055783909 0.30811372 1.977147
0.041975841 0.30736721 1.9725404
0.028233735 0.30661583 1.9678395
0.069198981 0.29317451 1.9698768
0.05549895 0.29290366 1.9683247
0.041844338 0.29277417 1.9676677
0.028145039 0.29205593 1.9629607
0.069309384 0.36199468 1.9656051
0.041973747 0.36204082 1.9663645
0.055521559 0.33394799 1.964872
0.041903093 0.33413297 1.96619
0.069632046 0.32247746 1.9795046
0.055736043 0.32154369 1.9740117
0.041814636 0.31980723 1.9634883
0.028237561 0.32029873 1.9666888
0.12375736 0.30673274 1.9661853
0.11045642 0.30769032 1.9729036
0.096396439 0.30650529 1.9657137
0.082729191 0.3063843 1.965337
0.12188991 0.28866547 1.9376229
0.11011086 0.29308328 1.9680419
0.096381813 0.29282632 1.9667703
0.082964189 0.2935867 1.9723238
0.083178535 0.36286131 1.9699999
0.110934 0.35026011 1.9770076
0.08296521 0.34826264 1.9665247
0.096949175 0.33568832 1.9741511
0.083038963 0.33489197 1.9698399
0.11041647 0.32126138 1.9707578
0.096457586 0.32034296 1.9655486
0.082822919 0.32037607 1.9661601
0.16493709 0.30719027 1.9671737
0.15167534 0.30800927 1.9731796
0.135535 0.3025648 1.9386748
0.16474818 0.29318902 1.9662653
0.15105112 0.29309657 1.9663565
0.13749732 0.29329124 1.9683273
0.13853632 0.36429423 1.9758153
0.12498217 0.36488736 1.979659
0.16597909 0.35038513 1.9751941
0.15255553 0.35113963 1.980208
0.1244663 0.33593556 1.9746099
0.16520528 0.32137704 1.9689671
0.15094444 0.32016045 1.9621729
0.21181205 0.11763204 1.7924368
0.21277142 0.10570019 1.8011297
0.21221763 0.092992879 1.7968487
0.21433224 0.081363425 1.8153011
0.20713234 0.1635703 1.7499796
0.20717491 0.15146711 1.7510544
0.20860729 0.14029363 1.7639284
0.20957246 0.12866551 1.7727695
0.24009559 0.2056824 1.9148811
0.24113454 0.19322795 1.9241395
0.24069653 0.17955673 1.9214596
0.24508481 0.11501494 1.9601356
0.24573049 0.10171914 1.9658295
0.24698712 0.088570967 1.9763916
0.24295683 0.1677976 1.9404376
0.2421429 0.15383515 1.9346107
0.24292228 0.14088689 1.941554
0.24455829 0.12830181 1.9553432
0.26049259 0.19779411 1.9688231
0.26106825 0.1845412 1.9740756
0.2615687 0.26719242 1.971727
0.2460853 0.26528737 1.9587109
0.26216397 0.25405306 1.9774377
0.24689442 0.25249639 1.9663814
0.26191941 0.22634676 1.9777619
0.24371672 0.22227186 1.9430159
0.27477518 0.11609837 1.976387
0.28814283 0.14331932 1.971709
0.30342638 0.19907635 1.9778328
0.2894105 0.18515684 1.9782116
0.28961265 0.17154092 1.9804142
0.27568409 0.17142694 1.9803692
0.31798741 0.25472081 1.9773761
0.2759631 0.25410059 1.9765855
0.30417758 0.227134 1.980824
0.17504804 0.2742911 1.9295695
0.22147463 0.30981648 1.9805927
0.2073344 0.30928192 1.9781247
0.19304766 0.30843723 1.9735906
0.17785726 0.30590913 1.9581276
0.22067855 0.29497054 1.9747933
0.20699669 0.29504248 1.9762521
0.1917771 0.292777 1.9618624
0.17694253 0.29079771 1.9493301
0.21922418 0.2793847 1.9629794
0.2056326 0.27945301 1.9644285
0.18935633 0.27562323 1.9381864
0.22155307 0.35128647 1.9767687
0.2061827 0.34860891 1.9625587
0.1931169 0.3497242 1.9698011
0.18022686 0.35135284 1.9799007
0.22120354 0.33696726 1.9751986
0.20718239 0.33655116 1.9737185
0.19338295 0.33646163 1.9741038
0.17994259 0.33703107 1.978323
0.22074145 0.32252708 1.9725449
0.20705552 0.32260549 1.9740041
0.19202383 0.3204492 1.9616137
0.17805925 0.31988004 1.9589444
0.26312122 0.31017128 1.9795579
0.23507988 0.30958387 1.9780535
0.23423435 0.29474837 1.9722584
0.2621336 0.2815153 1.9747666
0.24845986 0.28159705 1.9765084
0.23326881 0.27986798 1.9653711
0.24958076 0.33811501 1.9798216
0.23453285 0.32260296 1.9719727
0.20784986 0.37901232 1.9752071
0.32304841 0.3147867 2.003835
0.30915347 0.31489673 2.0059922
0.29239029 0.31195709 1.988494
0.27928203 0.31281823 1.9953367
0.31987834 0.29783216 1.9854192
0.31030512 0.30200973 2.0149391
0.29363209 0.29934594 1.9984075
0.27801737 0.29754931 1.9876243
0.32154483 0.28544599 1.9971837
0.30726629 0.28512982 1.9963938
0.29429913 0.28605825 2.0043228
0.27865252 0.28434503 1.9935311
0.32055056 0.27066866 1.9922322
0.30781049 0.27168781 2.0012317
0.29324803 0.27111879 1.9983796
0.28105316 0.27279106 2.0121155
0.2798093 0.36917543 1.9928671
0.31254143 0.36083177 2.0234613
0.29819426 0.36060706 2.0235968
0.28155136 0.35744542 2.0070465
0.32094201 0.34055752 1.9876641
0.30728656 0.34084168 1.9907817
0.2928907 0.3402926 1.9889282
0.27975804 0.34122956 1.9957634
0.30874476 0.32846975 2.0018439
0.29285675 0.32635397 1.9902264
0.28054163 0.32820722 2.0029342
0.36093906 0.26970059 1.9803705
0.45509985 0.20548321 2.0243697
0.45593885 0.17742808 2.0298994
0.42669374 0.17709145 2.0300782
0.014977071 0.58060706 1.9808246
-0.43278515 0.39850381 1.9786241
-0.23537621 0.015884975 1.5458772
-0.24571048 0.015859235 1.5422597
-0.26039505 0.0161047 1.5652134
-0.23478359 0.0051389341 1.5419936
-0.24540268 0.0051371139 1.5403559
-0.26039907 0.0052232482 1.5652862
-0.23463446 -0.0055635758 1.5410033
-0.24633749 -0.0055863387 1.546281
-0.26039898 -0.0056584491 1.5652847
-0.23612131 -0.016365878 1.5508167
-0.24726833 -0.016391065 1.5521326
-0.2602323 -0.016529555 1.5642223
-0.23470616 0.069352329 1.5404688
-0.24501035 0.069239758 1.5368578
-0.23443027 0.058580872 1.5389293
-0.24565655 0.058709055 1.5412422
-0.25952548 0.059431683 1.55925
-0.2347468 0.047955599 1.5412692
-0.24552006 0.047969062 1.540619
-0.26019591 0.048712008 1.5635637
-0.23550685 0.03737184 1.5465027
-0.24522389 0.037216742 1.5389346
-0.25988713 0.037793897 1.5618861
-0.23492168 0.026566641 1.5427661
-0.24632603 0.026641484 1.5460656
-0.26038691 0.026985388 1.5650663
-0.15772887 0.0050710198 1.5275507
-0.050282158 0.015094873 1.478678
-0.060476076 0.015093551 1.4783001
-0.069579884 0.014859801 1.4548795
-0.05978933 0.0048396378 1.4613822
-0.040514816 0.015257515 1.4949796
-0.040515456 0.0049484828 1.4950485
-0.050921995 0.0049579525 1.4977351
-0.071755379 0.0049701002 1.5008949
-0.030907564 -0.0054852678 1.5302811
-0.060349885 0.035416149 1.4749581
-0.069385253 0.034842834 1.4505452
-0.070570275 0.025254613 1.4757173
-0.030737273 0.067978688 1.5207893
-0.040823463 0.06731198 1.5055639
-0.051711801 0.06797009 1.520227
-0.041202702 0.057453148 1.519973
-0.051582281 0.057336912 1.51666
-0.062080227 0.057369269 1.5172709
-0.07315591 0.057849135 1.5297878
-0.030902622 0.047250446 1.5295688
-0.040723439 0.046422668 1.5023441
-0.051687304 0.046969417 1.5200124
-0.062611006 0.047301423 1.5306097
-0.072216533 0.046685457 1.5101783
-0.050446287 0.035609167 1.4833286
-0.050381444 0.025344038 1.4815379
-0.061364062 0.025663244 1.5001411
-0.18003203 0.015738213 1.5361104
-0.19097908 0.015764059 1.5378234
-0.20208652 0.015799718 1.5404508
-0.21296747 0.015814977 1.5410174
-0.2234385 0.015799792 1.5385387
-0.18038063 0.0051141898 1.5391614
-0.19147021 0.0051258379 1.541865
-0.20247608 0.0051341322 1.5434972
-0.21297081 0.0051292833 1.5410889
-0.22472286 0.0051537333 1.5475184
-0.18049583 -0.0055438443 1.5401535
-0.19134811 -0.0055493833 1.540871
-0.20260483 -0.0055654459 1.5444875
-0.21351297 -0.0055708033 1.5450505
-0.22458045 -0.0055796062 1.546527
-0.18049291 -0.016204881 1.5400791
-0.19158904 -0.016241761 1.5427815
-0.20234391 -0.01624734 1.5424297
-0.21283169 -0.016231989 1.5400223
-0.22386524 -0.016257739 1.5415037
-0.1806663 0.069150507 1.5406213
-0.19140661 0.069175415 1.5403438
-0.20112137 0.068846643 1.5320669
-0.21330684 0.069354184 1.5425363
-0.22436404 0.069463916 1.5440115
-0.18022256 0.058335505 1.5370859
-0.19105878 0.058393899 1.5378039
-0.20217061 0.058525912 1.5404283
-0.21292047 0.058545142 1.5400029
-0.22367385 0.058563467 1.5395033
-0.18081306 0.047846604 1.542412
-0.19058588 0.047619924 1.5341978
-0.20218663 0.047849797 1.540791
-0.21280175 0.047835041 1.5393757
-0.22397609 0.047941402 1.5418451
-0.17990255 0.036979407 1.5347576
-0.19059794 0.036992826 1.5344865
-0.2021994 0.037171394 1.5410811
-0.21267961 0.03713626 1.5386751
-0.22370559 0.037195224 1.5401565
-0.1801416 0.026388168 1.5369599
-0.19072901 0.026380841 1.535695
-0.20208018 0.026474347 1.5403067
-0.21268967 0.026466183 1.5388919
-0.22357379 0.026491338 1.5393842
-0.12643987 0.01568578 1.5343716
-0.13771591 0.015763335 1.5414413
-0.14852466 0.01578011 1.5424564
-0.15894671 0.015756302 1.539417
-0.16965951 0.015762497 1.5392905
-0.12692972 0.0051070112 1.5404226
-0.13710128 0.0050896378 1.5345397
-0.14843208 0.0051147044 1.5415322
-0.16977064 0.0051155319 1.540356
-0.12652311 -0.0055148057 1.5354375
-0.13780612 -0.0055420548 1.5425072
-0.14852694 -0.005544404 1.5425261
-0.15915255 -0.0055431239 1.5414765
-0.1696621 -0.0055382168 1.5393605
-0.12676497 -0.01615108 1.5383538
-0.13789198 -0.016210007 1.543429
-0.14899902 -0.016258297 1.5474291
-0.15904826 -0.016192421 1.5404077
-0.16987632 -0.016209133 1.5412745
-0.13017586 -0.027497297 1.580062
-0.14097126 -0.027474642 1.5781407
-0.15269533 -0.027623242 1.5860999
-0.16728002 -0.028234769 1.620829
-0.12672465 0.068832859 1.5369155
-0.13740773 0.06886331 1.53701
-0.14790812 0.068804383 1.5350418
-0.15930283 0.069141515 1.5419475
-0.17014787 0.069212727 1.5428107
-0.12641163 0.058066722 1.5333651
-0.13768518 0.058353838 1.5404298
-0.14792226 0.058191989 1.535475
-0.15891135 0.058327835 1.5384063
-0.17027254 0.058574639 1.5442398
-0.1263404 0.04744387 1.5327288
-0.13690327 0.047434419 1.5318308
-0.14745963 0.047424223 1.5308609
-0.15892401 0.047687877 1.5387681
-0.1696353 0.04770663 1.5386411
-0.12651108 0.036903515 1.5350093
-0.13708824 0.036896165 1.5341101
-0.14841796 0.037077881 1.5411003
-0.15812063 0.036856011 1.5311006
-0.16953759 0.03703649 1.5379363
-0.12643583 0.026283422 1.5342284
-0.13788773 0.026447173 1.5432893
-0.14785562 0.026323216 1.5353448
-0.15884 0.026384704 1.5382786
-0.16943718 0.026378199 1.5371588
-0.1801759 -0.028502367 1.6355529
-0.19235818 -0.028632132 1.6422305
-0.20586011 -0.028932896 1.6587425
-0.084910892 0.015847208 1.552222
-0.095057406 0.015754227 1.5426232
-0.10568611 0.015751837 1.5419384
-0.11601166 0.015708836 1.5371923
-0.084317312 0.0051037273 1.5413098
-0.094937123 0.0051030349 1.5406983
-0.10555236 0.00510226 1.5400143
-0.11586447 0.0050883158 1.535269
-0.084317289 -0.0055289697 1.5413083
-0.095058888 -0.0055353115 1.5426931
-0.10562003 -0.0055309259 1.5410105
-0.11623699 -0.0055299983 1.5402536
-0.084856741 -0.016265066 1.5512193
-0.095057324 -0.016179936 1.542619
-0.10555059 -0.016156755 1.5399388
-0.11660764 -0.016216215 1.5451653
-0.085178465 -0.027068026 1.557062
-0.095784947 -0.02702998 1.5544481
-0.10635959 -0.026991524 1.5517631
-0.11801948 -0.027210314 1.5639628
-0.084180854 0.068788417 1.5378001
-0.095331371 0.069176659 1.5461642
-0.10578766 0.069033675 1.542487
-0.11642153 0.069022119 1.541729
-0.084026732 0.05806642 1.5352398
-0.094731718 0.058133267 1.5366253
-0.10539169 0.058161806 1.5369397
-0.11591125 0.058114726 1.5351881
-0.084195696 0.047565818 1.538594
-0.094921969 0.047620457 1.5399787
-0.10540013 0.04755215 1.5373003
-0.11584601 0.047483113 1.5345516
-0.08441741 0.037045751 1.5428754
-0.094684482 0.036898348 1.5362759
-0.10581307 0.037082553 1.5435731
-0.11615143 0.036981456 1.5388272
-0.084908195 0.026553912 1.5520774
-0.094932601 0.026364289 1.5404836
-0.10568273 0.026394106 1.5417947
-0.116157 0.02635587 1.5390433
-0.031047024 0.015682485 1.5372105
-0.031227443 0.0051157894 1.5462794
-0.041802496 -0.0055310861 1.5430295
-0.052536413 -0.005541333 1.5457063
-0.062904179 -0.0055160169 1.5383173
-0.073409796 -0.0055083507 1.5358541
-0.031206932 -0.016189223 1.545204
-0.041667741 -0.016115732 1.5379577
-0.052300122 -0.016124951 1.5386366
-0.063105404 -0.01617538 1.543239
-0.073597662 -0.016142599 1.5397756
-0.031245898 -0.026873564 1.5470567
-0.04239032 -0.027181538 1.5647979
-0.05260111 -0.026887344 1.5474839
-0.063952811 -0.027177213 1.5640723
-0.074729688 -0.027174395 1.563599
-0.062802151 0.068626992 1.5348113
-0.073621392 0.068840809 1.539336
-0.031359848 0.058652557 1.5521897
-0.031004559 0.036824547 1.5348526
-0.03116598 0.026379416 1.5430652
-0.32884762 0.059094999 1.8986574
-0.080210157 -0.047612049 1.9654049
-0.12135419 -0.047834974 1.9733268
-0.066118114 -0.047208015 1.9489208
-0.23365271 0.15427688 1.5294316
-0.23310855 0.1432879 1.5265095
-0.23303141 0.18574509 1.5230031
-0.23562329 0.11260066 1.5448968
-0.24643643 0.11263211 1.5442386
-0.26261103 0.11500894 1.5759821
-0.23402171 0.10116401 1.5347743
-0.24522948 0.10138579 1.5370847
-0.26135266 0.10353631 1.5688523
-0.2339059 0.090447903 1.5344412
-0.2451084 0.090646304 1.5367537
-0.26155201 0.092685394 1.5705066
-0.23423329 0.079893559 1.5369967
-0.24498343 0.07991612 1.5363492
-0.26142228 0.081714973 1.5701163
-0.25998858 0.070402279 1.5617651
-0.23493703 0.16583791 1.5371925
-0.24634147 0.16630469 1.5404645
-0.24608807 0.15540147 1.5395966
-0.24583076 0.14451806 1.5386533
-0.23553823 0.13404094 1.5432142
-0.24619199 0.13399374 1.5415711
-0.26267892 0.13699263 1.5752466
-0.2346891 0.12285596 1.5381775
-0.24608263 0.12320232 1.541464
-0.26272818 0.1260393 1.576144
-0.26467785 0.16015613 1.585992
-0.26424873 0.14885388 1.5840995
-0.23468068 0.20846237 1.5320848
-0.24871412 0.21129315 1.5519856
-0.23460141 0.19769426 1.5324899
-0.246612 0.19875231 1.5396719
-0.24543756 0.18710202 1.5331457
-0.23517577 0.17673038 1.5379895
-0.24550259 0.17644498 1.5343859
-0.22724697 0.22236113 1.5547333
-0.23817365 0.22242576 1.5541251
-0.24894756 0.22234832 1.5524633
-0.21183798 0.11139299 1.5301782
-0.20124072 0.15393376 1.5289547
-0.22293115 0.15423046 1.5300046
-0.13686396 0.07917577 1.5305351
-0.1477704 0.16421294 1.5288789
-0.15864681 0.16449116 1.5308026
-0.17995533 0.20706025 1.5263841
-0.22362846 0.20813583 1.5307066
-0.21266937 0.19719671 1.5306318
-0.19076492 0.18597719 1.5287861
-0.21232356 0.18622257 1.5289898
-0.2229057 0.18616301 1.5275049
-0.17987801 0.17509688 1.5283231
-0.21210954 0.17539214 1.5282551
-0.12662825 0.20676602 1.5276673
-0.1692615 0.20698145 1.5265903
-0.14812469 0.19650716 1.5301319
-0.16931203 0.19641474 1.5279664
-0.14807208 0.18580762 1.530448
-0.13733265 0.17503808 1.5306742
-0.1587082 0.17518497 1.530633
-0.11564894 0.089725815 1.5306865
-0.030920241 0.11059526 1.5283344
-0.030929675 0.089516602 1.5297
-0.041135203 0.088759936 1.5164793
-0.051598497 0.088753611 1.516163
-0.051705986 0.078450479 1.5197273
-0.084116213 0.20663102 1.5285649
-0.094710924 0.20660344 1.5279551
-0.10536864 0.20670503 1.5282617
-0.094609708 0.17459889 1.5288841
-0.031072967 0.20658748 1.529539
-0.062955692 0.20680891 1.5305585
-0.073564656 0.20678781 1.5300926
-0.17999311 0.11141927 1.5331982
-0.19069396 0.11145975 1.5329244
-0.20217152 0.11192594 1.5385113
-0.22310632 0.11171309 1.5336334
-0.18048233 0.1010616 1.5378873
-0.19084607 0.10090469 1.534639
-0.20220345 0.10126197 1.5392385
-0.21281965 0.10123085 1.5378227
-0.22285703 0.10094052 1.5323838
-0.17993213 0.090125509 1.5335821
-0.19087328 0.090273611 1.535291
-0.2021035 0.090535551 1.5389029
-0.21257892 0.090450063 1.5364989
-0.22374205 0.090651371 1.5389651
-0.18018539 0.079609409 1.536145
-0.19101945 0.079689123 1.536862
-0.20212905 0.0798693 1.5394843
-0.21192823 0.079539575 1.532132
-0.22334348 0.079818912 1.5365814
-0.18038353 0.16493429 1.5334325
-0.19086388 0.16478378 1.5311787
-0.20209317 0.16526163 1.5347712
-0.2132452 0.16563152 1.537297
-0.22486748 0.16631384 1.542696
-0.18065636 0.15451294 1.5364984
-0.1910308 0.15427366 1.5332545
-0.21234804 0.15427998 1.5314894
-0.18023592 0.14350741 1.5335598
-0.19143857 0.14392595 1.5372356
-0.2017995 0.1437009 1.5339185
-0.21280089 0.14393158 1.5354654
-0.22326435 0.14379379 1.5329919
-0.18050317 0.13305847 1.536482
-0.19123407 0.13310662 1.5362034
-0.20196949 0.13315266 1.5358505
-0.21297981 0.1333662 1.5373981
-0.22444712 0.13383184 1.5418262
-0.18042232 0.1223419 1.5363631
-0.1907827 0.12215202 1.5331171
-0.20175041 0.1223505 1.5347453
-0.21356176 0.12301502 1.5422224
-0.22392075 0.12281945 1.5387555
-0.12665589 0.11126186 1.5344579
-0.13750935 0.11145385 1.5365384
-0.14811254 0.11142997 1.5355641
-0.15891188 0.11154702 1.536502
-0.16973087 0.11166225 1.537365
-0.12675737 0.10072592 1.5361756
-0.13744321 0.10077046 1.5362687
-0.14832577 0.10094247 1.5382748
-0.15944527 0.1012419 1.5421904
-0.16954099 0.10089447 1.5361063
-0.12677558 0.090113759 1.5368266
-0.13719876 0.089980334 1.5339366
-0.14796762 0.090076506 1.5349519
-0.15885825 0.09022896 1.5368859
-0.16967364 0.090322219 1.537751
-0.12654793 0.079344407 1.5344189
-0.14808135 0.079515345 1.5365245
-0.15867518 0.079497039 1.5354781
-0.16969521 0.079681143 1.5383308
-0.12676853 0.16449094 1.5327332
-0.13789511 0.16509022 1.5377755
-0.16977291 0.16497709 1.5346271
-0.12687989 0.15400007 1.5348111
-0.13731214 0.15377264 1.5319269
-0.14827926 0.1541338 1.5349164
-0.15878598 0.15400009 1.5328788
-0.17067952 0.15514377 1.5436301
-0.12698931 0.14348836 1.536818
-0.13751861 0.14336823 1.5349234
-0.14840694 0.14361276 1.5369231
-0.1591258 0.14367156 1.5368649
-0.16985072 0.14372808 1.536733
-0.12693435 0.13278633 1.5367676
-0.13781105 0.13301486 1.5388429
-0.14843756 0.13298643 1.5378665
-0.15895545 0.13287103 1.5358263
-0.16966899 0.13292338 1.5356963
-0.1268774 0.12209158 1.5366437
-0.13766131 0.12222368 1.5377281
-0.14837104 0.12227567 1.5377449
-0.15929049 0.12248193 1.5396719
-0.1695929 0.12221763 1.5355757
-0.19211432 0.20872211 1.5379088
-0.20238523 0.20826544 1.5336132
-0.21314692 0.2083343 1.533178
-0.18150331 0.19812058 1.5405709
-0.19156298 0.19743919 1.5343733
-0.20308767 0.19825992 1.5399164
-0.22397858 0.19776039 1.5340542
-0.18040484 0.18626562 1.5320238
-0.20224549 0.18675393 1.5343405
-0.19118117 0.17572036 1.5329772
-0.20178533 0.17566945 1.5316367
-0.22452714 0.17678967 1.5395578
-0.18334532 0.22179046 1.5544438
-0.19314891 0.22061853 1.5452938
-0.20565984 0.22249942 1.5576868
-0.21659352 0.22257078 1.5572278
-0.13791838 0.20778425 1.5346658
-0.14883734 0.20813723 1.5366485
-0.15948577 0.20808998 1.5355971
-0.12739606 0.19734111 1.5379406
-0.13787182 0.19705117 1.535059
-0.15943202 0.19734122 1.5359935
-0.12743232 0.18671559 1.5392507
-0.13791102 0.18644123 1.5363672
-0.15907142 0.18624038 1.5333525
-0.1701175 0.18667006 1.5361792
-0.12697978 0.1754088 1.534546
-0.14811185 0.17522494 1.5316795
-0.16994657 0.17581417 1.5354409
-0.12950589 0.22232026 1.5617511
-0.14121208 0.22366774 1.5706946
-0.15087152 0.22181255 1.556879
-0.16024655 0.21981578 1.5420218
-0.17147894 0.22045757 1.5458142
-0.084405191 0.11154686 1.5403237
-0.094549395 0.11096056 1.5317472
-0.10532431 0.11115799 1.5340515
-0.11620941 0.11142496 1.5372754
-0.084094428 0.10053156 1.5350699
-0.095233887 0.10109937 1.5434245
-0.10581472 0.10101951 1.5417429
-0.11578121 0.10042142 1.5320284
-0.084593035 0.090460159 1.5446917
-0.094578132 0.089812182 1.5331168
-0.1051533 0.089798599 1.5324357
-0.083955169 0.079191014 1.5333056
-0.094590247 0.07923127 1.5336936
-0.1053021 0.07932125 1.5350051
-0.11611057 0.079460882 1.537238
-0.08426369 0.16448954 1.5346204
-0.094876893 0.16446745 1.5340095
-0.10568827 0.16475879 1.5363022
-0.11623795 0.16462614 1.5345535
-0.084499806 0.15429473 1.5396814
-0.094899543 0.15387969 1.5350955
-0.10557832 0.1539551 1.5354047
-0.11596812 0.15363388 1.5316709
-0.084680691 0.14394651 1.5436808
-0.094981521 0.14337637 1.5371028
-0.10546664 0.14317125 1.5344318
-0.11636595 0.14351448 1.5376481
-0.084428176 0.1328706 1.539652
-0.095183671 0.13302267 1.5410285
-0.10562374 0.13274769 1.5373607
-0.11631562 0.13281055 1.5375973
-0.084120207 0.12177807 1.5345492
-0.094836935 0.12191805 1.5359294
-0.10577922 0.12229061 1.5402193
-0.11633789 0.12219205 1.5384673
-0.041792415 0.11144645 1.5400525
-0.052422885 0.11143853 1.5397313
-0.062969998 0.11128592 1.537344
-0.073581278 0.11127444 1.5368782
-0.031144954 0.10076933 1.5400279
-0.041959886 0.10121623 1.5467621
-0.052498512 0.10095049 1.5424501
-0.063222624 0.10107093 1.5440496
-0.073876485 0.1010605 1.5435818
-0.062706172 0.089670904 1.5317353
-0.073745422 0.090239726 1.5412436
-0.031493172 0.080398962 1.5582327
-0.041622922 0.079221249 1.5350194
-0.062754661 0.079157665 1.5333092
-0.073424146 0.079251476 1.53484
-0.031127544 0.1644554 1.5355949
-0.041722223 0.16434096 1.5343521
-0.052536279 0.16496179 1.5399946
-0.062985368 0.1644205 1.5346317
-0.073835202 0.16493058 1.5391325
-0.031115042 0.15376988 1.5356859
-0.04183929 0.15415595 1.5394166
-0.052380968 0.15384917 1.5361111
-0.063323528 0.15462473 1.5436721
-0.073994428 0.15460885 1.5432035
-0.03114197 0.14327429 1.5376943
-0.041714784 0.14308277 1.5354551
-0.052359104 0.14316444 1.5361292
-0.063054919 0.14333566 1.5377259
-0.073586144 0.14313728 1.5352701
-0.031028647 0.13216296 1.5326588
-0.041964479 0.13326125 1.5453591
-0.05240358 0.13265653 1.5380658
-0.063068025 0.13273002 1.5386676
-0.073648646 0.13263133 1.5372058
-0.031134468 0.1219876 1.5385083
-0.041972548 0.12260684 1.5462322
-0.05254804 0.12236339 1.5429201
-0.063080132 0.12211803 1.539537
-0.073568337 0.12187079 1.5360829
-0.11662923 0.20786253 1.5364023
-0.084411219 0.19671115 1.5348918
-0.095407426 0.1974389 1.5402207
-0.10607549 0.19740941 1.5395335
-0.11696147 0.19775371 1.5417414
-0.084165558 0.1855251 1.5312403
-0.096102871 0.18811627 1.5524328
-0.1057005 0.18606696 1.5349005
-0.11647446 0.1862739 1.536123
-0.085213661 0.17708968 1.5513223
-0.10606678 0.17603029 1.5410906
-0.11680325 0.17611325 1.5413215
-0.11911736 0.22319523 1.5685225
-0.077969894 0.23042183 1.6216253
-0.0895878 0.23136926 1.6279765
-0.099536419 0.22827616 1.6055818
-0.10972153 0.22629377 1.5910333
-0.041782733 0.20710626 1.5332541
-0.05244432 0.20722421 1.5339236
-0.031241842 0.19704749 1.5388474
-0.041848816 0.19678524 1.5366144
-0.052493665 0.1967714 1.5362926
-0.063539453 0.19801165 1.5458108
-0.073681086 0.1964829 1.5334492
-0.031210897 0.18620014 1.5381701
-0.0417003 0.18547614 1.5319657
-0.052340928 0.18558201 1.5326374
-0.062992655 0.18568493 1.533236
-0.073796459 0.1861417 1.5367372
-0.031179452 0.17537107 1.5374173
-0.041845363 0.17547368 1.5381615
-0.052690692 0.17613441 1.5437986
-0.063130789 0.17544609 1.5374454
-0.073816396 0.1755403 1.537971
-0.33298501 0.099908903 1.9216499
-0.33302149 0.086561583 1.9222862
-0.32966805 0.072466172 1.9031335
-0.34190983 0.11630149 1.9730699
-0.34124228 0.15713848 1.9673214
-0.34214658 0.14383061 1.9732622
-0.34169257 0.12993367 1.9712462
-0.34221795 0.19876921 1.9705514
-0.34330672 0.1856308 1.9777489
-0.34067124 0.17054063 1.9632571
-0.33839133 0.26441494 1.943069
-0.33629617 0.24928817 1.9321173
-0.37209496 0.25534037 1.9761096
-0.34128726 0.23929815 1.9621491
-0.34267348 0.28150633 1.9665914
-0.3590717 0.3251448 1.9755166
-0.28658944 0.29412046 1.9634383
-0.30033076 0.29416808 1.9624146
-0.31127727 0.29159337 1.9437081
-0.24378878 0.29205707 1.9531767
-0.26013485 0.29517677 1.9730488
-0.27190283 0.29304934 1.9575063
-0.18978016 0.29264021 1.9610598
-0.20437123 0.29403177 1.96956
-0.21671011 0.29221177 1.9563184
-0.16383821 0.30872449 1.9771801
-0.15018377 0.2951462 1.980311
-0.094818644 0.3075791 1.9727149
-0.080890559 0.2930066 1.9684482
-0.09447477 0.29283088 1.9668616
-0.10852588 0.29396418 1.9740729
-0.081397079 0.322294 1.9780749
-0.026376816 0.30722827 1.9718181
-0.04000219 0.30691093 1.9696153
-0.026189169 0.29147315 1.9590298
-0.039677482 0.29087785 1.9548485
-0.067188412 0.29273972 1.9669758
-0.026519567 0.36385378 1.9764667
-0.04015933 0.36294156 1.9713211
-0.026438661 0.34904498 1.9720085
-0.039837576 0.34643731 1.9570106
-0.053857949 0.34918582 1.9724454
-0.040211361 0.33596379 1.9770738
-0.05390577 0.3357794 1.975767
-0.026393471 0.32109764 1.97165
-0.040047407 0.32092589 1.9704366
-0.053579077 0.3201111 1.9651824
-0.054086078 0.46076375 1.9660126
-0.05450318 0.50592256 1.9745718
-0.019121503 0.014663142 1.4364001
-0.019464206 0.0048408671 1.462464
-0.020254357 -0.0054570986 1.522457
-0.019303082 0.044807162 1.449788
-0.019304322 0.034807805 1.4500597
-0.02033969 0.06829077 1.5279559
-0.019815009 0.056262307 1.4884174
0.069557495 -0.040336441 1.6626748
0.05872602 -0.040772282 1.6810944
0.047451876 -0.041039437 1.6924481
0.036109176 -0.041402034 1.7077246
0.024362357 -0.041427765 1.7089303
0.021949114 0.015693126 1.5383656
0.011345962 0.015693527 1.5384793
0.000742256 0.01569367 1.5385205
-0.0098614842 0.01569356 1.5384893
0.022020085 0.0051061409 1.5434359
0.011360744 0.0050964449 1.5405502
0.00074226776 0.0050899405 1.5385914
-0.0098616406 0.0050899051 1.5385603
0.022062451 -0.0055422294 1.5464342
0.011397246 -0.0055388222 1.5455486
0.00074226753 -0.0055140345 1.5385901
-0.0098679848 -0.0055175447 1.5395589
0.022005592 -0.01615867 1.5423608
0.011375154 -0.01615908 1.5424747
0.00074703177 -0.01622146 1.5485157
-0.0099058961 -0.016190235 1.5454847
-0.020596417 -0.016220972 1.5483801
0.022117864 -0.026926076 1.5502123
0.011367482 -0.026772009 1.5413283
0.00074700738 -0.026892617 1.5483686
-0.0098801907 -0.026772071 1.5413384
-0.020543072 -0.026823031 1.544234
0.021984426 0.068820879 1.5399228
0.011342316 0.068690009 1.5370396
0.00074058515 0.068558037 1.5340838
-0.0098392852 0.068557568 1.5340528
0.021986544 0.058205985 1.5403563
0.011321512 0.057983156 1.5344744
0.00074065657 0.057983693 1.5345156
-0.0098402351 0.057983287 1.5344845
0.021917701 0.047435466 1.53572
0.011322422 0.047406103 1.5348339
0.00074071618 0.047406539 1.534875
-0.0098219914 0.047314517 1.5318457
0.021919111 0.03684957 1.5360075
0.011330449 0.036850497 1.5361209
0.00074124127 0.03685084 1.536162
-0.009828967 0.036779355 1.5331321
0.022019034 0.026380338 1.5432212
0.011345598 0.026296396 1.538336
0.00074318761 0.026330482 1.540377
-0.0098548243 0.026279533 1.5373464
-0.020424586 0.026245084 1.5352434
0.064635821 0.015759673 1.5441817
0.054338146 0.015862059 1.5545799
0.043429404 0.015792547 1.547917
0.032614045 0.015722768 1.5411789
0.064719655 0.0051178969 1.5462509
0.053993125 0.005111808 1.5446576
0.043374557 0.0051154597 1.5459893
0.032635506 0.005102654 1.5422498
0.06500949 -0.0055691511 1.5532436
0.053923924 -0.0055306284 1.5426574
0.043457843 -0.0055523231 1.5489866
0.032656446 -0.0055313548 1.5432481
0.064594343 -0.01617516 1.5431781
0.053923037 -0.016166247 1.5425833
0.043401591 -0.016208921 1.5469131
0.032802533 -0.016240967 1.5501721
0.064840674 -0.026919 1.5490254
0.053921279 -0.02680108 1.5424367
0.043400176 -0.02687183 1.5467663
0.03280146 -0.026924957 1.5500249
0.064449519 0.068802826 1.5387434
0.053732894 0.06867642 1.5361514
0.043026835 0.068504691 1.5324875
0.032645456 0.068906419 1.5417343
0.064207338 0.057966471 1.533186
0.053807244 0.058158565 1.5385816
0.043114267 0.058050711 1.5359156
0.03250201 0.058016665 1.5351746
0.064543702 0.047636911 1.5415348
0.054019053 0.047732856 1.5449355
0.043284312 0.047644697 1.5422704
0.032567449 0.047525186 1.5385321
0.064630643 0.037053522 1.5438211
0.053953357 0.037033115 1.5432268
0.04325933 0.036988363 1.5415601
0.032506708 0.036848038 1.535822
0.06467516 0.026424153 1.5450368
0.053921364 0.026375774 1.5424439
0.043289181 0.026377721 1.5427755
0.032613002 0.026345396 1.5410354
0.1238234 -0.039372899 1.620448
0.11286299 -0.039451584 1.6242467
0.16873214 -0.039411854 1.6194432
0.15603872 -0.039037377 1.6046343
0.14498009 -0.039045867 1.6056615
0.13498381 -0.039365586 1.619565
0.1021037 -0.03962566 1.6319631
0.090803884 -0.039607119 1.6316233
0.080140188 -0.039900038 1.6441871
0.11802294 0.015779072 1.5440606
0.10744832 0.015791841 1.545827
0.096545704 0.015753906 1.5425318
0.085913047 0.015756082 1.5431544
0.075324468 0.015768098 1.5447029
0.11810027 0.0051209112 1.5451291
0.10738137 0.0051185084 1.5449008
0.09679462 0.0051225703 1.5465953
0.085969441 0.0051134564 1.5442241
0.075229213 0.0051075323 1.5427767
0.11810023 -0.0055475854 1.5451276
0.10744999 -0.0055485284 1.5458972
0.096794583 -0.0055493824 1.5465939
0.085969411 -0.0055395095 1.5442225
0.075325631 -0.0055401851 1.5447727
0.11840015 -0.016257262 1.5490419
0.10758554 -0.016239297 1.5478178
0.096669294 -0.016200339 1.5445235
0.086078063 -0.016212938 1.5461451
0.075517289 -0.016235653 1.5486938
0.11884905 -0.027055042 1.5548764
0.10771936 -0.026956551 1.5496656
0.097593866 -0.027115352 1.5593457
0.086240374 -0.026930051 1.5489932
0.075514831 -0.026916148 1.5485466
0.11783437 0.068976261 1.5406209
0.10755125 0.069208778 1.5463718
0.096638456 0.069042727 1.5430809
0.085940547 0.06900806 1.5427065
0.075396739 0.069104835 1.5452522
0.11822291 0.058524117 1.5460376
0.10749293 0.058496688 1.5458107
0.096647754 0.058393609 1.5435158
0.085783735 0.058252193 1.5401477
0.075307585 0.05837141 1.5436913
0.1183078 0.047878891 1.5473969
0.1074329 0.047795407 1.5451765
0.096593641 0.047711123 1.5428801
0.085680559 0.047564957 1.5385128
0.074976102 0.047509652 1.5370646
0.11861718 0.037288904 1.5516746
0.10709649 0.037010543 1.5404792
0.096723534 0.037111156 1.5451651
0.08579611 0.036997616 1.5407976
0.075366668 0.037097067 1.545341
0.11764189 0.026355218 1.5389315
0.10717028 0.026393512 1.5416931
0.096666314 0.026431397 1.5443839
0.085580096 0.026299741 1.5370206
0.074984513 0.026302949 1.5375682
0.16053441 0.015765853 1.5402594
0.15039603 0.015819944 1.546295
0.13964823 0.015813299 1.546289
0.12940091 0.015866922 1.552188
0.16115279 0.0051329681 1.5462989
0.15059012 0.0051374352 1.5483572
0.13956136 0.0051254686 1.5453643
0.12899163 0.0051297741 1.5472769
0.16135804 -0.0055677304 1.5482868
0.15049422 -0.0055619436 1.5473607
0.13956131 -0.0055525224 1.5453626
0.12890933 -0.0055536428 1.5462787
0.16166334 -0.01630576 1.5511962
0.15068345 -0.016278494 1.5492766
0.14018248 -0.016302753 1.5522604
0.12915401 -0.016264599 1.549194
0.16186339 -0.027066708 1.5530375
0.1504869 -0.02695285 1.5471387
0.13955452 -0.026907191 1.5451413
0.12914982 -0.026964141 1.5490466
0.16171472 0.069536291 1.5507381
0.15092312 0.069508344 1.5508106
0.14040503 0.069611706 1.5537939
0.12870175 0.069095917 1.5427678
0.16162752 0.058773682 1.5501819
0.1504584 0.058600746 1.5462748
0.139439 0.05846414 1.5432835
0.12887856 0.05851325 1.5451944
0.16092198 0.047838822 1.5435866
0.15085372 0.048033066 1.5506177
0.13989536 0.047951933 1.5486239
0.12831309 0.047625769 1.5385842
0.16093223 0.037162885 1.5438766
0.15000072 0.037100427 1.541953
0.1389247 0.036989931 1.5379614
0.12914385 0.037234552 1.5488364
0.16083726 0.026468275 1.5430993
0.14991203 0.026423762 1.5411745
0.13982193 0.026530897 1.5481365
0.12939681 0.026586952 1.5520432
0.17705351 0.016306143 1.592801
0.1783694 0.0053278068 1.6048023
0.1812145 -0.0058637834 1.6306444
0.17460729 0.059542529 1.5699021
0.17604353 0.049077511 1.5831871
0.17682062 0.038290996 1.5904406
0.17836098 0.027525567 1.6045784
0.18361895 -0.017367784 1.6524329
0.028920002 -0.13300407 2.0290742
0.07074035 -0.14678273 2.0251048
0.0708315 -0.16094255 2.0270448
0.042958453 -0.16119915 2.0308108
0.070921481 -0.17513549 2.0288866
0.056937192 -0.17514831 2.0293226
0.042908326 -0.17498772 2.0276711
0.084884681 -0.18906768 2.0271125
0.028159646 -0.061488688 1.9774526
0.22288324 0.019324422 1.8895078
0.22253808 0.0062577007 1.8866154
0.21679243 0.06959714 1.8366565
0.21797152 0.057206392 1.8470156
0.22042547 0.044937398 1.868214
0.22090074 0.032093413 1.8724489
0.23101743 -0.020570934 1.9590244
-0.020134451 0.098898731 1.5112674
0.00073623302 0.12074397 1.5228684
-0.0096990522 0.11972585 1.5098774
0.022028871 0.11152789 1.5414549
0.011379892 0.11145926 1.5405716
0.00074256677 0.11117449 1.536623
-0.0098529328 0.11103081 1.534597
-0.020433845 0.11095682 1.5334963
0.021919489 0.100385 1.5341971
0.011359829 0.1006461 1.5383021
0.00074173143 0.1004531 1.5353496
-0.0098481737 0.10038776 1.5343206
0.02196501 0.089982338 1.5378407
0.011339582 0.089868955 1.5359578
0.00074374815 0.090101101 1.5399922
-0.0098876515 0.090158314 1.5409595
-0.020479565 0.089982741 1.537861
0.021981951 0.079432435 1.5394171
0.011362933 0.07943444 1.5395308
0.00074384385 0.079486199 1.540571
-0.0098889228 0.079536662 1.5415382
-0.020548018 0.079636864 1.5434319
0.021991869 0.16446105 1.5357509
0.011382633 0.16467604 1.5378535
0.00074322481 0.16436124 1.5349115
-0.0098870257 0.16457097 1.5368693
-0.020557184 0.16488348 1.5397483
0.022025341 0.15407108 1.5388268
0.011392649 0.1541736 1.5399358
0.00074340287 0.15378043 1.5359967
-0.0098957289 0.15407529 1.5389509
-0.020496374 0.15377586 1.535862
0.022058479 0.14364663 1.541833
0.011366039 0.14319101 1.5369687
0.00074547727 0.14355969 1.540993
-0.0098979436 0.14346685 1.5399657
-0.020474663 0.14300434 1.5348836
0.022063069 0.13301802 1.5427767
0.011397572 0.13293633 1.5418948
0.00074563239 0.13293754 1.5419363
-0.0099190185 0.13310672 1.5438976
-0.020505229 0.13259336 1.5378157
0.022067312 0.12238307 1.5436484
0.011407058 0.12238615 1.5437623
-0.020430241 0.12152285 1.5327033
0.064497121 0.11135586 1.5382797
0.053841818 0.11129439 1.5376866
0.043419514 0.11180264 1.5449972
0.032564845 0.11116605 1.5362822
0.064548843 0.10081108 1.5400004
0.05388502 0.10075548 1.5394073
0.04323224 0.10069825 1.5387411
0.032591004 0.10063938 1.538002
0.064806461 0.090536907 1.5466368
0.053892802 0.090140276 1.5400586
0.043460507 0.090551674 1.5473756
0.03257478 0.089978613 1.5376546
0.064566441 0.079564624 1.5412312
0.053796001 0.079367727 1.5376431
