ply
format ascii 1.0
comment PCL generated
element vertex 1418
property float x
property float y
property float z
element camera 0
property float view_px
property float view_py
property float view_pz
property float x_axisx
property float x_axisy
property float x_axisz
property float y_axisx
property float y_axisy
property float y_axisz
property float z_axisx
property float z_axisy
property float z_axisz
property float focal
property float scalex
property float scaley
property float centerx
property float centery
property int viewportx
property int viewporty
property float k1
property float k2
end_header
0.27946889 0.28517807 1.9994167
0.32133201 0.27132851 1.9971265
0.30781049 0.27168781 2.0012317
0.29396224 0.27177909 2.0032842
0.2655789 0.27128884 2.0021925
0.25000894 0.26951718 1.9901866
0.33637804 0.2582579 2.0035408
0.32111415 0.25722542 1.9969708
0.30625579 0.25643897 1.9922491
0.29190612 0.256024 1.9903647
0.2790944 0.25698385 1.9991883
0.26358739 0.2554324 1.9882578
0.33614585 0.24411428 2.0032964
0.32182962 0.24384841 2.0026009
0.30753893 0.24357869 2.0018046
0.3494651 0.18790551 2.0019503
0.25321957 0.4271242 1.9982833
0.28160733 0.39961025 2.0022187
0.28089541 0.37060845 2.0006626
-0.26835132 0.027810784 1.6134076
-0.28673637 0.028524147 1.6539124
-0.26852223 0.016607344 1.6145459
-0.28386769 0.016852187 1.6373142
-0.26755112 0.0053667082 1.6087008
-0.28370276 0.0054624216 1.6364045
-0.26852632 -0.0058350549 1.6146194
-0.2837027 -0.005917551 1.6364032
-0.26852202 -0.017056106 1.6145413
-0.28369814 -0.017297246 1.6363239
-0.26900107 -0.028327698 1.6173464
-0.28368914 -0.028676122 1.6361672
-0.27084711 0.12993421 1.6253264
-0.27056894 0.11849406 1.6242058
-0.27093613 0.10733286 1.6269449
-0.27064946 0.095909238 1.6256686
-0.26710889 0.083492495 1.6046054
-0.27055061 0.073262371 1.6258374
-0.26862592 0.0615157 1.6144663
-0.29142112 0.064058907 1.6805521
-0.26864699 0.050294157 1.6148479
-0.28738201 0.051643495 1.6573069
-0.26882634 0.039093878 1.6161392
-0.28706145 0.040071186 1.6556493
-0.16463633 0.027347526 1.594975
-0.17659651 0.027492773 1.60276
-0.18774834 0.027502447 1.6025106
-0.2215009 0.027562615 1.6032826
-0.23253952 0.027553689 1.6017339
-0.16535339 0.016391393 1.6020873
-0.18775427 0.016413284 1.6026604
-0.19866705 0.01639865 1.6003494
-0.2096857 0.016393844 1.5989563
-0.25537062 0.016482743 1.6034993
-0.16464412 0.0052933469 1.5951978
-0.18775721 0.0053233323 1.6027346
-0.22151133 0.0053349771 1.603507
-0.24357866 0.0053314404 1.600334
-0.17627937 -0.0057542212 1.6000001
-0.18775715 -0.0057668723 1.6027333
-0.19891417 -0.0057688104 1.6024072
-0.21006519 -0.027964268 1.601774
-0.19914891 0.027545447 1.6041694
-0.21083827 0.027621739 1.6077306
-0.24490882 0.02769606 1.609008
-0.25738811 0.027837908 1.6161883
-0.1771445 0.0164579 1.6078799
-0.22218567 0.016499519 1.6083862
-0.23425463 0.016564624 1.6137613
-0.24610901 0.016609306 1.6170691
-0.17671335 0.0053247293 1.603978
-0.1991583 0.0053316555 1.6043937
-0.21097699 0.0053496878 1.6089472
-0.23354669 0.0053560967 1.608887
-0.25568622 0.0053523835 1.6055495
-0.16576272 -0.0057733497 1.6061392
-0.21110573 -0.005798961 1.6099373
-0.22218905 -0.0057971724 1.6084592
-0.23326196 -0.0057952944 1.6069057
-0.24417487 -0.0057897945 1.6042879
-0.25693265 -0.0058266111 1.6134501
-0.16565832 -0.01686538 1.6050671
-0.17703587 -0.016892275 1.6068815
-0.18856092 -0.016929237 1.6096089
-0.19952108 -0.016914191 1.6072922
-0.21110228 -0.016950598 1.6098596
-0.22218543 -0.01694537 1.6083816
-0.23325819 -0.016939882 1.6068283
-0.24566157 -0.017027125 1.6140982
-0.25661686 -0.017010763 1.6113966
-0.16575466 -0.027977308 1.605909
-0.17724709 -0.028039055 1.6087162
-0.1880938 -0.027997388 1.6054826
-0.19951469 -0.02804107 1.6071389
-0.22217835 -0.028092759 1.6082281
-0.23410462 -0.028186474 1.6126127
-0.24639904 -0.028313944 1.6188871
-0.2575435 -0.028303919 1.6171683
-0.16558897 0.12732497 1.6011606
-0.17652832 0.12721567 1.5990022
-0.18756092 0.12718248 1.5977603
-0.21011378 0.12742242 1.5990052
-0.25526598 0.1278 1.5995632
-0.16531307 0.11604027 1.5990146
-0.18759358 0.11612411 1.5985901
-0.22172555 0.11659228 1.6023183
-0.25562137 0.11683003 1.6023679
-0.16564423 0.10517801 1.6027468
-0.17680393 0.10521667 1.6025711
-0.22135411 0.10529039 1.6001098
-0.23267013 0.10538524 1.6005377
-0.25535005 0.10556997 1.6011555
-0.16556628 0.094039015 1.6024334
-0.1768292 0.094131336 1.6032512
-0.1875349 0.093933634 1.599032
-0.20969847 0.093937844 1.5973129
-0.22152106 0.094254844 1.6017796
-0.24344091 0.094134949 1.5976194
-0.25554186 0.094504818 1.6028237
-0.16548571 0.082909152 1.6020437
-0.17674327 0.082990587 1.6028628
-0.18778913 0.082968883 1.6016194
-0.19870414 0.082895003 1.5993093
-0.22154902 0.083150387 1.6023844
-0.23259018 0.083123513 1.6008354
-0.25479522 0.083116829 1.5984981
-0.17676292 0.071903594 1.6033913
-0.18781 0.071884774 1.6021476
-0.19909215 0.071953014 1.6028115
-0.16541828 0.060716182 1.6020298
-0.17667131 0.060775854 1.6028504
-0.18759739 0.060722634 1.6006147
-0.23249559 0.060873222 1.600829
-0.24337229 0.06081536 1.5982171
-0.1652386 0.038515124 1.600718
-0.18762419 0.038566608 1.6012923
-0.1987734 0.038579587 1.6009669
-0.22121933 0.03862739 1.6010758
-0.23252858 0.03866221 1.6015079
-0.19955991 0.12777179 1.6043588
-0.22263509 0.1282414 1.6083992
-0.23373061 0.1282001 1.6068424
-0.2449642 0.1282348 1.6061958
-0.17720942 0.11658224 1.6057818
-0.19959463 0.11666215 1.6051928
-0.21143718 0.11705558 1.6097281
-0.23334448 0.11683951 1.6047171
-0.24500652 0.11708476 1.6070325
-0.18889025 0.10576963 1.6102484
-0.19950426 0.10548247 1.6049602
-0.21159929 0.10596734 1.6114782
-0.24459812 0.10573602 1.6048331
-0.1995327 0.094369091 1.6056418
-0.23341431 0.09457019 1.6061594
-0.21114118 0.083430357 1.6088103
-0.24466352 0.083451159 1.6061238
-0.1659108 0.072009541 1.6065471
-0.21052077 0.072064191 1.6043878
-0.22238661 0.072306365 1.6088525
-0.23332721 0.072238944 1.6063088
-0.24588266 0.072654814 1.6145579
-0.25638083 0.072453052 1.6088953
-0.19923308 0.060892235 1.6042565
-0.21054073 0.06094896 1.6048415
-0.22186556 0.061004709 1.6053476
-0.25671655 0.061352268 1.6113257
-0.16563481 0.049701568 1.604395
-0.17701074 0.049780831 1.6062082
-0.18818848 0.049798284 1.6059556
-0.19937088 0.049814951 1.6056261
-0.21042863 0.049800359 1.6042281
-0.22242527 0.049998283 1.6096872
-0.23365231 0.050012566 1.6091213
-0.2448819 0.050026059 1.6084777
-0.25580198 0.049977921 1.6057823
-0.17723891 0.03871889 1.6084973
-0.21044192 0.038686659 1.60453
-0.2462388 0.039074861 1.617678
-0.25628546 0.038895514 1.6090475
-0.098647095 0.027395863 1.6013618
-0.13163963 0.027365183 1.5980073
-0.14317416 0.027461123 1.6030474
-0.1540242 0.027421424 1.6000421
-0.087669149 0.016361991 1.6031448
-0.12063126 0.016334366 1.5990168
-0.13180645 0.016351543 1.6001498
-0.076529622 0.0053007854 1.6017814
-0.087508276 0.0052968767 1.6002231
-0.1208567 0.0053075547 1.6020824
-0.15412639 0.005310921 1.601261
-0.12093118 -0.0057533253 1.6030781
-0.13188978 -0.0057487241 1.6012185
-0.14256413 -0.0057334043 1.5962968
-0.15393654 -0.0057463408 1.5992684
-0.13205023 -0.016824473 1.6031351
-0.14300235 -0.01681076 1.6012003
-0.065530397 -0.02784762 1.6030345
-0.14308582 -0.027886761 1.6020439
-0.15430865 -0.027915098 1.6030207
-0.065732762 0.02749029 1.6080372
-0.076667771 0.027436692 1.6045547
-0.087936766 0.027501058 1.6079874
-0.11008336 0.027493155 1.6066363
-0.12099998 0.027454736 1.6038533
-0.065815769 0.016426226 1.6101854
-0.076859303 0.016414428 1.6086996
-0.098893806 0.016390048 1.6055031
-0.10995146 0.016387561 1.6047907
-0.14326683 0.016398709 1.6041931
-0.15459852 0.016425431 1.6061642
-0.06569545 0.0053177075 1.6072619
-0.098895378 0.0053157974 1.6055773
-0.11015631 0.0053248093 1.6078579
-0.13221507 0.005319667 1.605207
-0.14335719 0.0053218771 1.6052632
-0.065654971 -0.0057572317 1.6062611
-0.076718673 -0.0057566343 1.6057754
-0.087724589 -0.0057523982 1.6042157
-0.098956242 -0.0057622558 1.6065739
-0.11008856 -0.0057649268 1.6068587
-0.065815702 -0.016870093 1.6101806
-0.07676468 -0.016837239 1.6066972
-0.088209905 -0.016907791 1.6131252
-0.099015504 -0.01685367 1.6074948
-0.11008676 -0.016851112 1.6067815
-0.12107822 -0.016837923 1.6049954
-0.15507287 -0.016921055 1.6111368
-0.076762185 -0.027913483 1.6065446
-0.087828457 -0.027910143 1.605983
-0.099499427 -0.028078187 1.6153259
-0.10994779 -0.027902123 1.6046336
-0.12107427 -0.027914621 1.6048429
-0.13220859 -0.027926674 1.6049756
-0.065625966 0.12704657 1.6022923
-0.076637618 0.12695526 1.600811
-0.087577939 0.12678373 1.5982594
-0.098851845 0.12707943 1.6016047
-0.1322384 0.12725039 1.602223
-0.14347056 0.12738146 1.6032692
-0.15443861 0.12727608 1.6012601
-0.065637529 0.11600022 1.6031213
-0.076698333 0.11598825 1.6026357
-0.098808371 0.11595879 1.6014385
-0.13218033 0.11611485 1.6020591
-0.14287943 0.11580639 1.5971454
-0.154276 0.11606695 1.6001049
-0.076616153 0.10480827 1.6013958
-0.087715454 0.10486037 1.6018318
-0.10960348 0.10463658 1.5974975
-0.13212018 0.1049874 1.6018192
-0.076674454 0.09382388 1.6030705
-0.12093617 0.093827896 1.6013705
-0.14301077 0.093792081 1.5995697
-0.15432264 0.093945183 1.6015376
-0.076637037 0.082719363 1.6026754
-0.10976864 0.082685776 1.6007677
-0.12087714 0.082722902 1.6009768
-0.13166836 0.082554877 1.5971284
-0.14320515 0.082844146 1.6021614
-0.15424745 0.082826369 1.6011466
-0.14313306 0.071732618 1.6016936
-0.13202089 0.060643315 1.6020885
-0.15408964 0.060618211 1.6001363
-0.087602459 0.049490444 1.6014724
-0.10966487 0.049476225 1.6001264
-0.12068845 0.04946794 1.5993406
-0.13170621 0.049458861 1.5984794
-0.14262961 0.049418483 1.5965476
-0.15419684 0.049590968 1.6015073
-0.098703243 0.038464449 1.6021347
-0.12099418 0.038523339 1.6036282
-0.13163333 0.038397681 1.5977829
-0.14290303 0.038461171 1.5998348
-0.15430154 0.038547721 1.6028029
-0.11085176 0.12815493 1.6148175
-0.12132486 0.12742996 1.6050757
-0.088133715 0.11647435 1.6090466
-0.11033009 0.11644103 1.6076927
-0.12156948 0.11656436 1.6088915
-0.065931015 0.1054007 1.6108547
-0.099189289 0.10529839 1.608168
-0.12143997 0.10532948 1.6076584
-0.14351854 0.10522476 1.6048563
-0.15467988 0.10526673 1.6048325
-0.065940537 0.09429609 1.611536
-0.088106483 0.094217293 1.6094878
-0.098899268 0.093915574 1.6038663
-0.11029594 0.0941903 1.6081343
-0.13262676 0.094272852 1.6084679
-0.065868132 0.083084948 1.6101459
-0.088009663 0.083015434 1.6080983
-0.099033676 0.082953207 1.6064631
-0.065632895 0.071720287 1.6046855
-0.076692887 0.071712859 1.6041998
-0.088019542 0.071925201 1.6086268
-0.099166542 0.071959622 1.6089857
-0.11025471 0.071948722 1.6082711
-0.12118863 0.071848363 1.6054885
-0.13241465 0.071923494 1.6066154
-0.15454929 0.071893737 1.6046575
-0.065679669 0.060695566 1.6061358
-0.076889314 0.060801383 1.6086444
-0.088027999 0.060831487 1.6090798
-0.098871663 0.060673796 1.6044515
-0.10999454 0.060701951 1.6047362
-0.12164721 0.060990583 1.6119202
-0.14367531 0.060892586 1.6081178
-0.065644488 0.049593158 1.6055133
-0.076848224 0.049679682 1.608023
-0.098879591 0.049605913 1.6048278
-0.065810494 0.038620692 1.6098095
-0.077089474 0.038711622 1.613317
-0.087770313 0.03851714 1.6047672
-0.11007809 0.038577244 1.6064109
0.034163009 0.027597522 1.6150086
0.022993578 0.027547909 1.6122044
0.011893165 0.027565526 1.6133233
0.00077566627 0.027481172 1.6083673
-0.010318058 0.027514823 1.6103344
-0.021359561 0.027446501 1.606227
-0.032565348 0.027563866 1.6130412
-0.043516509 0.027460825 1.6067842
-0.054652769 0.0274927 1.6084479
0.034080315 0.016429637 1.61116
0.022951936 0.016410124 1.6093549
0.011864343 0.016410541 1.6094738
0.0007761686 0.01641069 1.6095167
-0.010293003 0.01638028 1.6064844
-0.021360246 0.0163799 1.6063766
-0.03244644 0.016389357 1.6071929
-0.043491084 0.016378352 1.605934
-0.054587252 0.016387278 1.606599
0.034185588 0.0053450135 1.6162331
0.023079423 0.005351786 1.6184281
0.01186453 0.0053224443 1.609548
0.00077618094 0.0053224927 1.6095909
-0.01031855 0.0053257309 1.6105584
-0.021347415 0.0053092325 1.6054507
-0.032446954 0.0053155734 1.6072669
-0.043518588 0.0053152796 1.6070077
-0.054722644 0.0053279982 1.6106706
0.034018006 -0.0057619759 1.6082335
0.022952294 -0.0057657636 1.6094275
0.011864526 -0.0057659103 1.6095465
0.00077522534 -0.0057588662 1.6075896
-0.010312203 -0.0057659228 1.609557
-0.021373747 -0.0057586939 1.6074491
-0.03250692 -0.0057691108 1.6102647
-0.043491758 -0.0057545998 1.6060065
-0.054588091 -0.0057577356 1.6066713
0.034143124 -0.01690471 1.6141547
0.022923669 -0.016832814 1.6073508
0.01186433 -0.016853983 1.6094693
0.0007761679 -0.016854139 1.6095124
-0.010312032 -0.016854024 1.6094799
-0.021386562 -0.016843259 1.6083716
-0.032466404 -0.0168426 1.608188
-0.043839611 -0.016955743 1.6189241
-0.054620832 -0.016840464 1.6075939
0.034079168 -0.027973758 1.6110024
0.022937045 -0.027923338 1.6081979
0.011878544 -0.027975632 1.6113161
0.00077709783 -0.027975889 1.6113592
-0.010299004 -0.027906917 1.6073273
-0.021372696 -0.027906269 1.6072193
-0.032465346 -0.027922371 1.6080354
-0.043704126 -0.028023977 1.6137731
-0.054619055 -0.027918827 1.6074411
0.034831531 -0.039937112 1.6467556
0.023500849 -0.039962783 1.647954
0.012257593 -0.040324047 1.6630709
0.00080380565 -0.040420484 1.6671144
-0.01074902 -0.040684383 1.678077
0.011837374 0.12700301 1.6025798
0.00077488169 0.12708244 1.6036201
-0.054597549 0.12713587 1.6036985
-0.010284078 0.1158893 1.6024219
-0.043480188 0.11594717 1.6028689
-0.054539964 0.11593892 1.6025347
-0.043460365 0.1048357 1.6026249
-0.054496363 0.082684152 1.6025723
0.033905126 0.060521252 1.6021131
0.022808868 0.038345397 1.5989835
0.034149393 0.12769879 1.6112379
0.022942103 0.12723456 1.6054521
-0.010326638 0.12747282 1.6085719
-0.021390582 0.12723513 1.605473
-0.032612305 0.1277779 1.6122665
-0.043633234 0.1274579 1.6080198
0.034050774 0.11623854 1.6070851
0.022988487 0.11638625 1.6092743
0.011897824 0.11653209 1.6113882
0.00077740441 0.11639026 1.6094365
-0.02136804 0.11602954 1.6043086
-0.032498211 0.11623933 1.6071167
0.034139965 0.1054225 1.6118311
0.022935718 0.10503903 1.6060394
0.011892436 0.1053649 1.6111474
0.00077705196 0.10523658 1.6091949
-0.010330119 0.10530049 1.6101601
-0.021424109 0.10523342 1.609054
-0.032523405 0.1052293 1.6088698
-0.054683149 0.10515139 1.6072774
0.034061164 0.094084315 1.6085203
0.022995502 0.094203874 1.6107112
0.011872265 0.094090596 1.6088337
0.00077811902 0.094264947 1.6118717
-0.010356982 0.094437793 1.6148342
-0.021400882 0.094030812 1.6077378
-0.032548089 0.094200611 1.6105484
-0.043520242 0.093906283 1.6052983
-0.05472466 0.094130866 1.6089547
0.034065541 0.083000146 1.6091244
0.022998458 0.083105616 1.6113162
0.011881088 0.083056696 1.6104364
0.00077774178 0.083108485 1.6114786
-0.010326599 0.083056882 1.610447
-0.021429963 0.083054975 1.6103388
-0.032412391 0.082745634 1.6041636
-0.043525837 0.08284308 1.6059014
0.034236893 0.07226555 1.6176434
0.022972807 0.071914941 1.6098474
0.011875127 0.071916759 1.6099664
0.00077687431 0.071917422 1.6100096
-0.010327761 0.071961135 1.610976
-0.02136655 0.071738459 1.6058729
-0.032515958 0.071912438 1.6096846
-0.043557536 0.071820073 1.6074276
-0.054636981 0.071814954 1.6070927
0.023003263 0.060897589 1.6122987
0.011876274 0.060824368 1.6104193
0.00077742676 0.060862314 1.6114618
-0.010303379 0.060712352 1.607432
-0.021460773 0.060935259 1.6133192
-0.032539088 0.060858104 1.6111367
-0.043534927 0.060705215 1.6068809
-0.054743126 0.060850386 1.610541
0.034012564 0.049634021 1.6074848
0.022948623 0.049666647 1.6086786
0.011877229 0.049729034 1.6107963
0.00077796687 0.049790621 1.6128386
-0.010304208 0.049637452 1.6078086
-0.021370327 0.04960575 1.606701
-0.032461748 0.049634364 1.6075168
-0.043592043 0.049692731 1.6092557
-0.054612998 0.049628064 1.6069225
0.034014754 0.038557485 1.6077859
0.011834187 0.038488828 1.6050996
0.00077658397 0.038607903 1.6101412
-0.010298524 0.038536407 1.6071097
-0.021384871 0.038559262 1.6080015
-0.03246383 0.038557746 1.6078175
-0.043782525 0.038769282 1.6165526
-0.054851931 0.038719036 1.6142175
-0.35778874 -0.020973302 1.9857587
-0.26105559 -0.048542779 1.9941329
-0.27611688 -0.048767213 2.0022101
-0.30347526 -0.048710983 1.9972664
-0.31673384 -0.048621986 1.9921869
-0.33205017 -0.048843108 1.9998432
-0.3434236 -0.048489772 1.9837373
-0.26743659 0.16182545 1.6026833
-0.26878327 0.20756856 1.6074476
-0.27031782 0.19745745 1.6176424
-0.27071372 0.18643388 1.6209122
-0.27029443 0.17484993 1.6192021
-0.26960513 0.15187119 1.6165218
-0.2680364 0.13978668 1.6076887
-0.25500333 0.20551516 1.5925854
-0.16424531 0.19229794 1.5837265
-0.17725983 0.19450736 1.6013219
-0.18868347 0.19481319 1.6030337
-0.19904317 0.19404767 1.595796
-0.21085441 0.19470342 1.6003078
-0.22206068 0.19476272 1.5998154
-0.23241822 0.19410755 1.5933487
-0.24344124 0.19404258 1.5917256
-0.25616282 0.19527811 1.6008148
-0.16571003 0.18291371 1.5988404
-0.17698257 0.18309309 1.5996478
-0.18792883 0.1829337 1.5974154
-0.19982694 0.18366696 1.6029993
-0.2101395 0.18294238 1.595686
-0.22198452 0.18355772 1.6001217
-0.23361614 0.18394624 1.6025037
-0.24499336 0.18410812 1.602837
-0.25607523 0.18404362 1.6011277
-0.1652444 0.17133181 1.5951041
-0.18820629 0.17208704 1.6006012
-0.19975543 0.17246036 1.6032274
-0.21096367 0.17251547 1.6028131
-0.22163428 0.17214747 1.5983803
-0.23367468 0.17282772 1.6037207
-0.25629467 0.17302407 1.6033278
-0.16528362 0.16030188 1.5962354
-0.21011332 0.16072062 1.5970446
-0.22141582 0.16086811 1.5975451
-0.24362388 0.16086067 1.5953575
-0.25619915 0.16178648 1.6034871
-0.16532025 0.14926438 1.5972912
-0.17700006 0.14977786 1.6020651
-0.18748678 0.1492807 1.5958743
-0.22119381 0.14960827 1.5966318
-0.23264401 0.14983478 1.5980421
-0.24367733 0.14978436 1.5964173
-0.25578848 0.15037195 1.6016022
-0.16535431 0.13821983 1.5982718
-0.1763864 0.13818599 1.5971062
-0.22178061 0.1388772 1.6015633
-0.23311797 0.13900204 1.601985
-0.24462029 0.13920939 1.6033125
-0.16345772 0.21684846 1.6901168
-0.17484784 0.21642256 1.6860011
-0.1848909 0.2144874 1.6699759
-0.19713627 0.21518479 1.6745874
-0.20641094 0.21274261 1.6544955
-0.22030066 0.21506374 1.6717396
-0.22767656 0.21111205 1.6397287
-0.2363272 0.20866352 1.6194804
-0.24694103 0.20809262 1.6139061
-0.17735206 0.17234214 1.6038246
-0.24505463 0.17297976 1.6040553
-0.17728578 0.1611487 1.6039733
-0.18894123 0.16159889 1.6076683
-0.19980262 0.16135764 1.6043662
-0.23387167 0.16179945 1.6058466
-0.1997249 0.15015571 1.6044408
-0.21131714 0.15047838 1.6069902
-0.18902181 0.13933802 1.6097213
-0.19964398 0.13896026 1.6044383
-0.2112318 0.13925903 1.6069907
-0.25630733 0.13949919 1.6055427
-0.065817438 0.19401161 1.6026816
-0.076908641 0.19399177 1.6021948
-0.087726407 0.19337425 1.5966752
-0.12145455 0.19423839 1.6024613
-0.14371225 0.19428387 1.6016423
-0.15469934 0.19412382 1.5996356
-0.076835088 0.18271893 1.6014955
-0.098923959 0.18256068 1.5993042
-0.12126423 0.18283941 1.6007762
-0.13217257 0.18258207 1.5979304
-0.14322336 0.18254612 1.5969911
-0.076807477 0.17156996 1.6017112
-0.087988354 0.17176038 1.6031351
-0.098827563 0.17131588 1.5985268
-0.10994554 0.1713955 1.5988069
-0.12136937 0.1718937 1.6029775
-0.14334759 0.17161803 1.5991893
-0.15411696 0.17126568 1.5952038
-0.098972745 0.16048439 1.6016446
-0.14320575 0.16037275 1.59834
-0.15424834 0.16033855 1.5973253
-0.076606996 0.14901334 1.5989281
-0.1099963 0.14932027 1.6009951
-0.12112773 0.1493872 1.6012
-0.13234818 0.14954349 1.6023209
-0.14323756 0.14933044 1.5993962
-0.15428257 0.14929858 1.5983815
-0.076764546 0.13824265 1.602893
-0.11008671 0.13835675 1.6029704
-0.12085513 0.13799381 1.5982069
-0.13205071 0.13813856 1.5993309
-0.14335516 0.13836603 1.6013699
-0.15450397 0.13842139 1.601346
-0.099443994 0.19465634 1.6069403
-0.11042832 0.19438945 1.604243
-0.13302928 0.19491634 1.6075326
-0.065915972 0.18318637 1.6059533
-0.08834374 0.18359455 1.6088713
-0.11045808 0.18331817 1.6055313
-0.1551197 0.18351564 1.604879
-0.065892391 0.17200914 1.6061717
-0.13261189 0.17207311 1.604094
-0.065787002 0.16064011 1.6043247
-0.076967418 0.1608208 1.6058259
-0.088171363 0.16099891 1.6072505
-0.11044493 0.16105163 1.6068885
-0.12147269 0.16092631 1.6051047
-0.13256228 0.16089708 1.6042384
-0.065922886 0.14985509 1.6083678
-0.088029034 0.14963827 1.6053281
-0.099177241 0.14970988 1.6056833
-0.065815382 0.13851199 1.6063656
-0.08810132 0.13865128 1.6073061
-0.099258631 0.13871756 1.6076616
0.033955712 0.1933375 1.5977004
0.022839792 0.1928695 1.5939231
-0.05468956 0.19390942 1.6021005
0.011849014 0.17142333 1.6014951
0.022927787 0.16038385 1.6025084
0.00077392103 0.16009341 1.5996845
-0.010301188 0.16038825 1.6026375
-0.021364084 0.16028593 1.6015344
0.00077552529 0.14934617 1.6037266
-0.010297156 0.14925328 1.6026982
-0.021382019 0.14934172 1.6035861
-0.043535456 0.14932771 1.6031432
-0.054575715 0.14922528 1.6018131
0.033954546 0.13803028 1.6013632
0.00077473256 0.13812576 1.6027153
0.011901051 0.19442111 1.6069485
0.00077809364 0.1943039 1.605999
-0.010343947 0.19442154 1.606959
-0.021465974 0.19441713 1.6068507
-0.032586969 0.19440961 1.6066662
-0.043652914 0.19416103 1.6044209
0.034257524 0.18389717 1.6128901
0.023029197 0.18334368 1.6081179
0.011896989 0.18323606 1.6072434
0.00077830435 0.18323773 1.6072868
-0.010403738 0.18435855 1.6171907
-0.021445503 0.1831201 1.6061521
-0.032595795 0.18333739 1.6079547
-0.043664724 0.18310297 1.6057078
-0.055073522 0.18409973 1.6143101
0.034161728 0.17225532 1.6091359
0.022992782 0.17194614 1.606348
0.00077754952 0.17195201 1.6065102
-0.010406394 0.17321596 1.6184106
-0.021424687 0.17184149 1.6053748
-0.032504339 0.17172939 1.6041967
-0.043595575 0.17171997 1.6039369
-0.054751866 0.17191865 1.6055895
0.034107178 0.16087042 1.6072887
0.01188101 0.16078244 1.6066073
-0.032512125 0.16067423 1.6053306
-0.043632787 0.16076405 1.6060658
-0.054731395 0.16075265 1.6057302
0.034344893 0.15080439 1.6192995
0.02300344 0.14980029 1.6085432
0.01188367 0.14971222 1.6076667
-0.03249944 0.14951958 1.6053934
0.023050547 0.13897151 1.6125162
0.011856975 0.13829461 1.6046648
-0.010324653 0.13855006 1.6076645
-0.021439077 0.13863194 1.6085523
-0.032586068 0.13879663 1.6103606
-0.043651629 0.1386189 1.6081083
-0.054620653 0.13826892 1.6037893
-0.19372092 0.2848101 2.0034261
-0.20768195 0.28488457 2.0030425
-0.24982864 0.28535923 2.0032809
-0.099837169 0.23265965 1.8182039
-0.11162244 0.23099472 1.8046069
-0.12410359 0.23096021 1.8038028
-0.063830957 0.23926899 1.8714185
-0.012188947 0.24220596 1.8952708
-0.025360422 0.24282926 1.900103
-0.038399354 0.24219111 1.8949258
-0.050887089 0.23928583 1.8718098
-0.026760595 0.325564 1.9992889
0.014849119 0.31197062 2.0025737
0.00097095774 0.31182063 2.0016396
0.02870794 0.29789707 2.0025282
0.014825184 0.29761243 2.0006981
-0.012847558 0.29673687 1.9947754
-0.026766485 0.29789841 2.0025544
-0.040593728 0.2975949 2.0003464
0.02842186 0.28119811 1.9837199
0.014779174 0.28287646 1.9957498
-0.012889778 0.28385201 2.0026948
0.014783859 0.26914945 1.9976329
0.00097002141 0.26994702 2.0036337
-0.012862232 0.26941508 1.9996284
-0.026560673 0.26808381 1.9895824
-0.040500496 0.26926604 1.9982728
0.027763324 0.24785824 1.9397562
0.014234941 0.24585234 1.9240273
0.00092934852 0.24535155 1.9201109
-0.13952011 0.48445651 2.0025785
-0.15369356 0.48484477 2.0035176
0.1349083 0.027719392 1.6188065
0.12299953 0.027555488 1.6097189
0.11183881 0.027543262 1.6095229
0.1007482 0.027547501 1.6102481
0.089542642 0.027517477 1.6089011
0.07864935 0.027588494 1.6134689
0.067407914 0.027540665 1.6109707
0.056273289 0.027526226 1.6103935
0.045121819 0.027494418 1.6087406
0.13474806 0.016522581 1.6169645
0.12307891 0.01645503 1.6108661
0.11218566 0.016488096 1.6146607
0.10068956 0.016430084 1.6094002
0.089490458 0.016412165 1.6080525
0.078555413 0.01644445 1.6116215
0.06724444 0.016395714 1.6071244
0.056378856 0.01645777 1.6135416
0.045262102 0.016458983 1.6138883
0.13450339 0.0053489674 1.6140493
0.12292993 0.0053303288 1.6089462
0.11198147 0.0053377799 1.6117424
0.10075299 0.0053320555 1.6104724
0.089546911 0.0053262445 1.6091253
0.078749552 0.005346539 1.6156913
0.067700982 0.0053536543 1.6181889
0.056345161 0.0053344877 1.6126165
0.045346126 0.0053479807 1.6169615
0.13483241 -0.00580882 1.6180342
0.12383544 -0.0058169886 1.6209104
0.11191277 -0.0057789781 1.6107434
0.10112406 -0.0057975976 1.6164595
0.089932151 -0.0057948516 1.6161128
0.078508407 -0.0057742777 1.6106955
0.06774237 -0.0058032679 1.6191866
0.056206781 -0.0057647666 1.6086174
0.045207266 -0.0057758349 1.6119618
0.1341721 -0.016896537 1.6099839
0.12360704 -0.016972208 1.6178414
0.11218556 -0.016933639 1.6146561
0.1006276 -0.016863693 1.6083975
0.089545406 -0.016866017 1.6090462
0.078555346 -0.016888812 1.6116171
0.067409992 -0.016880231 1.6111161
0.056171272 -0.016840274 1.607541
0.045262057 -0.016903736 1.6138837
0.13408549 -0.027994618 1.6088345
0.12360301 -0.028137244 1.6176875
0.11245654 -0.02814202 1.6184926
0.1014902 -0.028197905 1.6222157
0.089762636 -0.028029937 1.6128868
0.078890331 -0.028119298 1.6184547
0.067656234 -0.028087897 1.6169571
0.056342375 -0.028004464 1.6123844
0.045121744 -0.027937762 1.6087332
0.1348193 -0.039317608 1.6175723
0.12352157 -0.039276928 1.6164604
0.11258838 -0.039355595 1.6202574
0.10142341 -0.039361648 1.6209874
0.090253562 -0.039367076 1.6216413
0.079079367 -0.039371882 1.6222191
0.068025574 -0.039448079 1.6257172
0.056892991 -0.039499648 1.6281414
0.046202414 -0.03995882 1.6474785
0.13477276 0.1281849 1.6140184
0.12295121 0.127505 1.6059531
0.11261784 0.12838662 1.6176945
0.10064667 0.12738965 1.6054895
0.089947164 0.12795462 1.6131064
0.078618161 0.12765726 1.609699
0.067670748 0.12798361 1.6141819
0.056492858 0.12791681 1.6136091
0.045353599 0.1279262 1.6139565
0.13422103 0.11653994 1.6078966
0.12350056 0.11691839 1.6137475
0.11208884 0.11665258 1.6105716
0.10115872 0.11688466 1.6142851
0.089743033 0.11654367 1.6099578
0.078824721 0.11684348 1.6145171
0.067393072 0.1163558 1.6080407
0.056433693 0.11665194 1.61245
0.045195136 0.11637475 1.608809
0.13416024 0.10537197 1.6076593
0.12299243 0.10532689 1.6075416
0.1125184 0.10592601 1.6173028
0.10068047 0.10523167 1.6070765
0.08975739 0.10543995 1.6107149
0.078548223 0.10532355 1.6092961
0.067486636 0.10539927 1.6107911
0.056235362 0.1051502 1.6072243
0.045174636 0.10522256 1.6085677
0.13516612 0.094963484 1.6202797
0.12323637 0.094403334 1.6112092
0.11184842 0.094188176 1.6080279
0.10081859 0.094260432 1.6097497
0.08982534 0.094389006 1.6123933
0.07855954 0.094227046 1.6099766
0.067455001 0.094237015 1.6104749
0.056312621 0.094187625 1.6098995
0.045236669 0.094252378 1.6112438
0.13469002 0.083469912 1.6149175
0.12325212 0.083281517 1.6118152
0.11193136 0.083142705 1.6096293
0.10101699 0.083308429 1.6133453
0.089506768 0.082962953 1.6070162
0.078521423 0.083075054 1.6095843
0.067463659 0.08313483 1.6110801
0.056319851 0.083091281 1.6105044
0.045270238 0.083199412 1.6128472
0.1342939 0.072098166 1.6104709
0.1230396 0.072023228 1.6093568
0.11208116 0.072123766 1.6121516
0.1010283 0.072179027 1.6138756
0.089626856 0.071968071 1.6095394
0.078530237 0.071976833 1.6101131
0.067388445 0.071940273 1.6096132
0.056257024 0.071902528 1.6090364
0.045219816 0.071996219 1.6113799
0.13430676 0.060977753 1.6109246
0.12327775 0.061026424 1.6127998
0.11209193 0.06099942 1.6126057
0.10085252 0.060934085 1.6113381
0.089690499 0.060905118 1.6109905
0.07858602 0.060912546 1.6115646
0.067394935 0.060844239 1.6100661
0.05640078 0.060961835 1.6134843
0.045251936 0.060928948 1.6128321
0.13423523 0.049823884 1.6103066
0.12336305 0.049924739 1.6141746
0.11189497 0.049780518 1.6099927
0.10110794 0.049940899 1.6157062
0.089587636 0.049733944 1.609372
0.078592308 0.049801115 1.6119423
0.067358956 0.049714722 1.6094447
0.056370713 0.049810857 1.6128629
0.045200039 0.049753409 1.6112115
0.13440831 0.038752392 1.6126014
0.1237482 0.03890191 1.6194615
0.11169615 0.038600098 1.6073022
0.10061968 0.038606044 1.6080266
0.089703441 0.038682561 1.61167
0.078452699 0.038616076 1.6092485
0.067280464 0.038572691 1.6077482
0.056270584 0.038623638 1.6101679
0.045147415 0.038602747 1.6095146
0.23478624 0.029011989 1.6882529
0.21316701 0.027721807 1.6134769
0.20192556 0.027713116 1.6139009
0.19068812 0.027703993 1.6142476
0.17890811 0.02761 1.6095476
0.16843264 0.027718212 1.6166979
0.15690921 0.027657095 1.6138279
0.14578886 0.027663108 1.6148607
0.2361587 0.017414829 1.6983169
0.21317375 0.016544195 1.6136281
0.20144002 0.01649872 1.6100826
0.19092657 0.016553715 1.6163849
0.17924206 0.016507702 1.6126798
0.16813003 0.016511809 1.6138648
0.15729758 0.016545909 1.6179599
0.14588253 0.01651925 1.6160072
0.21278781 0.0053559933 1.610728
0.20205808 0.0053673759 1.6151191
0.19092955 0.0053688781 1.6164597
0.17913541 0.0053506871 1.6117603
0.16792737 0.005348749 1.6119499
0.15739591 0.0053696171 1.61903
0.1457067 0.0053511593 1.6140897
0.21447447 -0.005848248 1.6236166
0.20328781 -0.0058499756 1.6250416
0.19034845 -0.005798514 1.611492
0.18001078 -0.0058248332 1.6197106
0.16864584 -0.0058191991 1.6189114
0.15662903 -0.0057886722 1.6110655
0.14526132 -0.0057793008 1.6091079
0.214471 -0.017094666 1.6235383
0.20205472 -0.01699627 1.6150397
0.19173981 -0.017073462 1.6233325
0.17967957 -0.016995173 1.6166511
0.16874573 -0.017020106 1.619828
0.15748914 -0.017013717 1.6199458
0.14570427 -0.016944919 1.6140107
0.21433438 -0.028323123 1.6223919
0.20303205 -0.028314343 1.6228238
0.19173364 -0.028305111 1.6231776
0.1797832 -0.028192483 1.6174906
0.16863763 -0.028199494 1.6186792
0.1568131 -0.028085899 1.612825
0.14525425 -0.028006144 1.6088775
0.21406461 -0.039512683 1.6201779
0.20302227 -0.0395483 1.6225922
0.19172442 -0.039535407 1.6229463
0.17922743 -0.039258253 1.6122916
0.16842422 -0.039339934 1.6164598
0.15709303 -0.039301142 1.6155806
0.1453363 -0.039141804 1.6096445
0.22841649 0.13065381 1.6388009
0.21425107 0.12897761 1.6185738
0.20184717 0.12823498 1.6101036
0.19084606 0.12834877 1.612433
0.1798224 0.1284606 1.6146879
0.16857164 0.12841427 1.6148851
0.15723071 0.12828778 1.6140124
0.14582048 0.12808108 1.6120682
0.22845607 0.11929348 1.6396533
0.21428828 0.11776307 1.6194154
0.20163654 0.11694253 1.6089609
0.19180815 0.11775924 1.6211962
0.17974444 0.11721981 1.6145346
0.16808832 0.11689224 1.6107621
0.15697087 0.11691937 1.6118709
0.14584602 0.11694466 1.612904
0.2286285 0.10799199 1.641417
0.21432211 0.10654295 1.6201805
0.20302026 0.10650984 1.6206139
0.19044504 0.10576565 1.6100672
0.17944491 0.10585802 1.6123207
0.16862789 0.10607783 1.6164849
0.15670848 0.10558614 1.6096505
0.14604723 0.10593177 1.6156516
0.22852454 0.096556492 1.6411259
0.21396355 0.095144831 1.6178994
0.201943 0.094769076 1.6123857
0.1915175 0.095141716 1.619675
0.17936119 0.094647385 1.6120124
0.16803649 0.094555408 1.6112121
0.15749736 0.094923817 1.6182828
0.14580114 0.094597876 1.6133531
0.22882627 0.085282579 1.6437246
0.2141203 0.083986402 1.6195004
0.20282906 0.083960272 1.6199321
0.19049639 0.083474725 1.6113585
0.17938396 0.083496749 1.6126201
0.16805786 0.083415627 1.611819
0.15703836 0.083485961 1.6139219
0.14528562 0.083147429 1.6079922
0.23226319 0.074990846 1.6690091
0.21349549 0.072545968 1.6150823
0.20174508 0.072346918 1.6115437
0.19086605 0.072455339 1.6148666
0.17951332 0.072386242 1.6141448
0.16807659 0.072271854 1.6123501
0.15657675 0.07211215 1.6094813
0.14610314 0.072436787 1.6174771
0.22969213 0.062716171 1.6506723
0.21416436 0.061542816 1.6204934
0.2027479 0.061486386 1.6199328
0.19065186 0.061205201 1.6133378
0.17909282 0.06107213 1.6106273
0.16819523 0.061161943 1.6137991
0.15668756 0.061026894 1.6109301
0.14540479 0.060965478 1.6099705
0.23216704 0.051824071 1.6688842
0.21379212 0.050224923 1.6179017
0.20276394 0.050270241 1.6203142
0.19113174 0.050162323 1.6176883
0.17943528 0.050023068 1.6139865
0.16800337 0.049943972 1.61219
0.15631667 0.049772508 1.6073285
0.14630687 0.050149605 1.6203042
0.23204522 0.04023508 1.6682081
0.21354616 0.038969129 1.6162236
0.20228493 0.038956955 1.6166503
0.19056287 0.03884941 1.6130276
0.17944667 0.038859673 1.6142898
0.16821934 0.038845643 1.6144817
0.15680587 0.038783576 1.612606
0.1451585 0.038649738 1.6076635
0.23698142 0.0056677526 1.7043393
0.23739089 -0.006150601 1.7073098
0.23847911 -0.018061165 1.715152
0.19187315 -0.061639383 1.9764308
0.17800766 -0.061560381 1.9747066
0.164997 -0.061788402 1.9828478
0.15067601 -0.061522607 1.9749569
0.27816677 0.12515529 1.9035081
0.28451994 0.019985303 1.9500121
0.28409454 0.0064720563 1.9471334
0.28409442 -0.0070113079 1.9471316
0.2892473 -0.0208664 1.9826643
0.28766221 -0.034404743 1.9715902
0.29180273 -0.04874916 2.0000017
0.3044616 0.13077921 1.9883865
0.33479932 0.11795177 2.0026186
0.27849254 0.11208439 1.9062929
0.27852768 0.098879352 1.9070125
0.27884486 0.08575774 1.9096195
0.28230876 0.073424436 1.933895
0.32004273 0.062149651 2.0004063
0.28333372 0.060243756 1.941275
0.28120276 0.046444546 1.9267989
0.28665987 0.033740737 1.9646728
0.1260184 0.19898847 1.6419468
0.11465384 0.19902182 1.6427678
0.10260516 0.19774406 1.6326104
0.090481438 0.19598711 1.6184011
0.079278901 0.19601071 1.6189803
0.067783453 0.19519855 1.6125386
0.056379974 0.1943831 1.6060168
0.045401461 0.1949921 1.6113261
0.1352797 0.18470673 1.6166193
0.12356745 0.18395592 1.610568
0.11194439 0.183202 1.6044338
0.1016454 0.18468761 1.6180527
0.089956701 0.18370344 1.6097785
0.07877101 0.1836134 1.6093615
0.067760453 0.18396914 1.6128393
0.056636818 0.18409766 1.6142567
0.045441452 0.18399888 1.6136117
0.13482136 0.17291094 1.6118947
0.1239754 0.17336403 1.6167428
0.11279515 0.17339319 1.6175507
0.10111567 0.17257674 1.6103418
0.089759864 0.17217882 1.6070222
0.078791082 0.17251575 1.6105764
0.067529753 0.17221764 1.6080952
0.056582212 0.17275998 1.6134872
0.045148179 0.17171846 1.6038948
0.13534623 0.16237067 1.6189871
0.12377895 0.16190784 1.614911
0.11261642 0.16193509 1.6157174
0.10101632 0.16126975 1.6094949
0.089946128 0.16139039 1.6111398
0.07880991 0.1614099 1.6117154
0.067339219 0.16063794 1.604261
0.056388576 0.16104673 1.6086607
0.045214426 0.16086124 1.607018
0.13471918 0.15045691 1.6121176
0.12403256 0.15103519 1.6189561
0.11271008 0.15087709 1.6177773
0.10091534 0.14998227 1.6085697
0.089856297 0.15009458 1.6102144
0.078731216 0.15011275 1.6107894
0.067561008 0.15003671 1.6102937
0.056332119 0.1497746 1.6077313
0.045390915 0.15033656 1.6140499
0.13474701 0.1393242 1.6131058
0.1234553 0.13917999 1.6120002
0.11204771 0.13886353 1.6088284
0.1014922 0.13964973 1.6185051
0.089710034 0.13873379 1.6082159
0.078795731 0.13909067 1.6127709
0.067657754 0.13910531 1.6132705
0.056309279 0.13860752 1.6077197
0.045344885 0.13904287 1.6130457
0.16744277 0.16088732 1.6020159
0.22802921 0.18724078 1.632392
0.21440363 0.18528435 1.6161749
0.20272911 0.18489079 1.613655
0.19133107 0.18471803 1.613026
0.18016952 0.18476631 1.6142931
0.16879471 0.18458775 1.6135074
0.15791723 0.18496636 1.6175883
0.14610298 0.18422171 1.6116992
0.22917648 0.17676395 1.6415118
0.21458702 0.17419024 1.6183867
0.20253463 0.17350508 1.6129045
0.19103135 0.17323759 1.6112852
0.17966889 0.1730725 1.6105734
0.16842754 0.1730099 1.6107721
0.1575745 0.17336559 1.6148524
0.14578442 0.17266591 1.6089563
0.22868526 0.16499071 1.6387358
0.21373087 0.16228756 1.6126299
0.20258248 0.16233508 1.6140501
0.19072849 0.16178964 1.6094638
0.1800392 0.16222578 1.6146835
0.1580904 0.16269721 1.62095
0.14608581 0.1618457 1.6130698
0.22655456 0.15216523 1.6240398
0.21313016 0.15065522 1.6087624
0.20189036 0.15060779 1.6091903
0.19111875 0.15092453 1.6134965
0.18018833 0.15114743 1.6167419
0.16840234 0.15063466 1.6119901
0.15726402 0.1506695 1.613101
0.14629614 0.15088543 1.6161195
0.22741891 0.14141451 1.6309615
0.21421051 0.14018606 1.6176555
0.2020546 0.13954856 1.6111686
0.19162229 0.14009647 1.6184466
0.17956963 0.13945423 1.6117927
0.16823199 0.1393189 1.6109976
0.15720074 0.13943608 1.613099
0.14605951 0.1394662 1.6141336
0.20611863 0.21106939 1.7379535
0.19420353 0.21124321 1.7403058
0.18001305 0.20880085 1.7208492
0.16676787 0.20718572 1.7082006
0.084224604 0.32579806 1.9996957
0.042565424 0.32554939 1.9990195
0.13827032 0.30867106 1.9781113
0.12517419 0.31024438 1.9888715
0.083636492 0.30974445 1.98706
0.042580862 0.31179744 2.0011938
0.13961792 0.29781464 1.9989222
0.12484781 0.29567051 1.9850169
0.11197528 0.29804584 2.0016263
0.097967356 0.29764351 1.9993783
0.070336215 0.29799262 2.0025034
0.056467276 0.29801413 2.0029361
0.042491309 0.29730088 1.9983286
0.13925354 0.28320888 1.9949797
0.12439603 0.28088546 1.9790807
0.11097017 0.28161955 1.9848262
0.09756729 0.28262785 1.9924601
0.070187211 0.28351766 1.9995409
0.055904847 0.28131002 1.9841349
0.042087886 0.28076884 1.9805092
0.13922907 0.26933295 1.995876
0.1252986 0.26910886 1.9948002
0.11056629 0.26689368 1.9787837
0.097357772 0.26825038 1.9893912
0.082687721 0.26536366 1.9682212
0.04210123 0.26714408 1.9823782
0.13769607 0.25269353 1.9749032
0.12323911 0.25109807 1.9629241
0.11021534 0.2523891 1.973624
0.096232876 0.2515395 1.9673932
0.082671352 0.25169146 1.9689944
0.068678357 0.25033066 1.9586055
0.054942481 0.24946868 1.9520863
0.041529011 0.24998584 1.9563825
0.23592131 0.32451278 1.9837381
0.22193995 0.32427824 1.9833384
0.19545965 0.3261829 1.9969877
0.18071949 0.32465914 1.9884416
0.15319847 0.32494134 1.9917036
0.23751055 0.31278491 1.9986652
0.18069589 0.31079146 1.9896253
0.16682161 0.31070015 1.9898261
0.1533289 0.31136712 1.9948589
0.23631848 0.29737094 1.9899441
0.19387823 0.29598475 1.9835256
0.17933844 0.29473531 1.9759337
0.16671532 0.29668978 1.9899272
0.15308116 0.29703563 1.9929904
0.23442705 0.2812576 1.9752061
0.22184178 0.28272063 1.9866019
0.19432431 0.2828545 1.989441
0.18019651 0.2823585 1.9867743
0.16652441 0.28255349 1.9889437
0.15305656 0.28316164 1.9939822
0.23589082 0.26919475 1.9888917
0.22267509 0.26992604 1.9953803
0.20784625 0.26866928 1.986993
0.19467211 0.26952478 1.9942836
0.17989807 0.26812664 1.9847053
0.1656747 0.26738557 1.9799587
0.15295437 0.26915556 1.9938906
0.23445448 0.25382072 1.9778724
0.22263239 0.25602037 1.9961885
0.2081131 0.25520444 1.9907526
0.19377439 0.25450972 1.9862007
0.17986313 0.25431302 1.9854995
0.16383745 0.25084645 1.9589968
0.15284978 0.25516394 1.9937018
0.11265945 0.42550936 1.999071
0.1123741 0.38265687 1.9995099
0.098604627 0.38326105 2.0031734
0.084496215 0.36860961 2.001452
0.042640328 0.36779034 1.9978367
0.11235763 0.35475504 2.0025766
0.056632426 0.35454416 2.002914
0.14015007 0.34070253 2.0022423
0.12538964 0.33842766 1.9893726
0.056461196 0.33959967 1.9983858
0.042382583 0.33795637 1.988865
0.27154759 0.19950438 1.853466
0.27218354 0.18705356 1.8587227
0.27138492 0.17362458 1.8540421
0.27144033 0.16077723 1.8551828
0.2710622 0.1476884 1.8532758
0.27110907 0.1348469 1.8542396
0.33492956 0.22931619 1.9970723
0.32144555 0.22962393 2.0012732
0.30238125 0.22579266 1.9690353
0.30245683 0.21214466 1.9705291
0.30342638 0.19907635 1.9778328
0.33500126 0.18761189 2.0003581
0.30424193 0.18582609 1.9840666
0.33425283 0.17330605 1.9966758
0.31860563 0.17235368 1.987101
0.3036119 0.15792777 1.9814863
0.30366436 0.14419588 1.9825168
0.26428434 0.31154239 1.9883765
0.26605543 0.29967865 2.0032063
0.33536002 0.28534171 1.9949428
0.27865252 0.28434503 1.9935311
0.2640734 0.28359854 1.989494
0.25042105 0.28381982 1.9922315
0.3063148 0.27036765 1.9914325
0.27982822 0.27160215 2.0032787
0.2649321 0.27062812 1.9972786
0.25037679 0.2699137 1.9931375
0.32080147 0.25697497 1.9950112
0.3079015 0.257817 2.0030379
0.29147747 0.25564805 1.9874192
0.27868599 0.25660777 1.99624
0.26410496 0.255934 1.9921921
0.25045127 0.25613394 1.9949316
0.33565655 0.24375895 2.0003579
0.30634168 0.24263045 1.9939517
0.36371249 0.22991881 1.9991595
0.34973016 0.22989847 2.0006151
0.34861523 0.18744853 1.997044
0.31021506 0.40031379 2.0030344
0.26685125 0.37054127 2.0015566
0.25215122 0.34159732 2.0003707
-0.26835132 0.027810784 1.6134076
-0.28775194 0.028625177 1.659825
-0.2698226 0.016687766 1.6224391
-0.28471404 0.016902432 1.6422418
-0.26787621 0.0053732293 1.6106741
-0.28370276 0.0054624216 1.6364045
-0.26787612 -0.0058209263 1.6106726
-0.28404126 -0.0059246123 1.6383743
-0.26770931 -0.017004482 1.6096081
-0.28285179 -0.017245643 1.6313964
-0.27030137 -0.02846463 1.6252388
-0.28470472 -0.028778782 1.6420796
-0.2693857 0.12923312 1.6164736
-0.26991931 0.11820956 1.6202692
-0.26979911 0.10688242 1.6200526
-0.27016211 0.095736533 1.6227134
-0.27003345 0.084406644 1.6223428
-0.27022561 0.073174365 1.623866
-0.26813841 0.061404057 1.6115083
-0.29040572 0.063835703 1.6746429
-0.26880953 0.050324585 1.6158341
-0.28839749 0.051825978 1.6632175
-0.26866379 0.039070241 1.6151527
-0.28706145 0.040071186 1.6556493
-0.16504309 0.027415093 1.5989536
-0.1761626 0.027425222 1.5987841
-0.1652517 0.016381312 1.6010925
-0.16464412 0.0052933469 1.5951978
-0.25537461 0.00534586 1.6035739
-0.16515256 -0.0057520983 1.6001703
-0.17638785 -0.0057577621 1.6009942
-0.18729612 -0.005752712 1.5987599
-0.18797886 0.027536213 1.604497
-0.19939296 0.027579203 1.6061541
-0.21109587 0.027655486 1.6097137
-0.22272091 0.027714429 1.6121981
-0.23382033 0.027705453 1.610641
-0.24595226 0.02781406 1.6159288
-0.2570765 0.027804207 1.6142131
-0.1771445 0.0164579 1.6078799
-0.1882153 0.016453587 1.6066335
-0.19939923 0.016459089 1.6063042
-0.2103297 0.016444193 1.6039145
-0.22164342 0.016459253 1.6044233
-0.23297377 0.016474051 1.6048533
-0.24551274 0.016569065 1.613114
-0.25677291 0.016573252 1.612389
-0.17693031 0.0053312667 1.6059662
-0.18821825 0.0053364038 1.6067079
-0.19940236 0.0053381892 1.6063788
-0.21123458 0.0053562196 1.6109304
-0.22232471 0.005354567 1.6094515
-0.23425829 0.0053724162 1.6138361
-0.24447307 0.0053510172 1.606267
-0.1994023 -0.005782967 1.6063772
-0.21046174 -0.0057812706 1.6049789
-0.2220535 -0.0057936353 1.6074685
-0.23340428 -0.0057988302 1.6078956
-0.24521835 -0.0058145374 1.6112096
-0.25584197 -0.0058018775 1.6065356
-0.16565832 -0.01686538 1.6050671
-0.17681891 -0.016871573 1.6048934
-0.1883304 -0.016908541 1.6076223
-0.19939905 -0.016903846 1.6062996
-0.21135987 -0.016971283 1.6118429
-0.22259212 -0.016976386 1.6113538
-0.23340051 -0.016950218 1.607818
-0.24521437 -0.016996128 1.6111318
-0.25646105 -0.017000435 1.6104089
-0.16616142 -0.028045965 1.6098876
-0.1775725 -0.028090533 1.6116982
-0.18820906 -0.028014543 1.6064757
-0.19939266 -0.028023919 1.6061466
-0.21161073 -0.028170014 1.6136723
-0.2220428 -0.028075619 1.6072375
-0.23396231 -0.02816934 1.611623
-0.24461029 -0.028108399 1.607023
-0.25785512 -0.028338166 1.6191436
-0.16579215 0.12748119 1.6031442
-0.17674506 0.12737185 1.6009843
-0.18790632 0.12741672 1.6007311
-0.19943801 0.12769374 1.6033694
-0.21011378 0.12742242 1.5990052
-0.23301975 0.12781021 1.6019086
-0.24362397 0.12753321 1.5973239
-0.2549547 0.12764415 1.5975938
-0.16571949 0.11632556 1.6029837
-0.18770874 0.1161954 1.599581
-0.19910693 0.11637709 1.6012329
-0.21053635 0.11655687 1.6028043
-0.22145465 0.11644983 1.6003419
-0.2324913 0.1164123 1.5987935
-0.1655426 0.10511348 1.6017541
-0.23267013 0.10538524 1.6005377
-0.24340641 0.10522087 1.5969392
-0.25472724 0.10531248 1.5972127
-0.21021338 0.094168514 1.6012729
-0.22138557 0.094197199 1.6007904
-0.23256087 0.094224408 1.6002306
-0.24344091 0.094134949 1.5976194
-0.16558735 0.082960077 1.6030372
-0.18732829 0.082765281 1.5976511
-0.22127801 0.083048671 1.6004055
-0.25541821 0.083320051 1.6024441
-0.21026325 0.071976036 1.6024064
-0.24424344 0.072170451 1.6036915
-0.18759739 0.060722634 1.6006147
-0.19898906 0.060817659 1.6022729
-0.21028319 0.060874406 1.6028596
-0.22132345 0.060855646 1.6013874
-0.23263788 0.060910478 1.6018182
-0.17614305 0.049536809 1.5982591
-0.1652386 0.038515124 1.600718
-0.18716319 0.038471851 1.5973201
-0.19901745 0.038626954 1.6029514
-0.22149043 0.038674727 1.6030568
-0.22263509 0.1282414 1.6083992
-0.17720942 0.11658224 1.6057818
-0.24575122 0.11744064 1.611964
-0.25608841 0.11704348 1.6053236
-0.17734595 0.10553923 1.6075312
-0.18842955 0.10551167 1.6062835
-0.19987009 0.1056759 1.6079315
-0.21108446 0.10570951 1.6075199
-0.22216693 0.10567702 1.6060419
-0.16587119 0.094212197 1.6054128
-0.17715447 0.09430448 1.6062285
-0.18834126 0.094337523 1.6059736
-0.19965467 0.094426773 1.6066327
-0.25569758 0.094562411 1.6038098
-0.17706856 0.083143331 1.6058412
-0.19967997 0.083302103 1.6072391
-0.21101244 0.083379485 1.6078199
-0.23330146 0.083377711 1.6057781
-0.24511053 0.083603628 1.6090864
-0.16580914 0.071965411 1.6055533
-0.1771967 0.072080046 1.6073638
-0.18827088 0.072061181 1.606117
-0.19945812 0.072085284 1.6057862
-0.22279318 0.072438553 1.6118219
-0.23346949 0.072282992 1.6072977
-0.25575778 0.07227698 1.604948
-0.16582496 0.060865451 1.6060063
-0.17688823 0.060850471 1.6048373
-0.24441554 0.061076052 1.6051341
-0.256405 0.06127781 1.6093515
-0.16583817 0.049762588 1.6063838
-0.18807323 0.049767788 1.6049628
-0.19961491 0.049875923 1.6076102
-0.2113301 0.050013702 1.6111666
-0.22174756 0.049845941 1.6047356
-0.23365231 0.050012566 1.6091213
-0.24473286 0.049995612 1.6074895
-0.25626934 0.050069232 1.6087441
-0.17702198 0.038671497 1.6065097
-0.21057071 0.038710337 1.6055214
-0.23324011 0.038780514 1.6064557
-0.24668597 0.03914582 1.6206437
-0.25628546 0.038895514 1.6090475
-0.098768882 0.027429685 1.6033577
-0.13188355 0.027415892 1.600997
-0.15411909 0.02743832 1.6010375
-0.098772012 0.016369862 1.6035069
-0.12078028 0.016354544 1.6010112
-0.13180645 0.016351543 1.6001498
-0.076529622 0.0053007854 1.6017814
-0.14309284 0.0053120642 1.6022749
-0.087670505 -0.0057488517 1.6032172
-0.12085667 -0.0057497802 1.6020808
-0.13197109 -0.0057522682 1.6022152
-0.14282846 -0.0057440349 1.599285
-0.15393654 -0.0057463408 1.5992684
-0.13188761 -0.016803753 1.6011418
-0.10981239 -0.027867761 1.6026385
-0.14317393 -0.027903933 1.6030399
-0.065732762 0.02749029 1.6080372
-0.076667771 0.027436692 1.6045547
-0.087882683 0.027484145 1.606989
-0.11028646 0.02754388 1.6096289
-0.12152153 0.027573075 1.6108329
-0.14379092 0.027579416 1.6100192
-0.065734863 0.016406033 1.6081871
-0.076764762 0.016394237 1.6067019
-0.088101812 0.01644274 1.6111326
-0.11028998 0.016438015 1.609779
-0.1438836 0.016469307 1.6111655
-0.15497813 0.016465764 1.6101459
-0.065654993 0.0053144335 1.6062627
-0.087832786 0.0053165192 1.6062143
-0.099017166 0.0053223441 1.6075736
-0.11015631 0.0053248093 1.6078579
-0.12100572 0.0053140996 1.6040767
-0.13286558 0.00534584 1.6131804
-0.15460092 0.0053272722 1.6062384
-0.065735877 -0.0057643265 1.6082596
-0.076813214 -0.0057637282 1.6077732
-0.099017136 -0.0057658018 1.6075721
-0.11035939 -0.0057791085 1.6108495
-0.065856151 -0.01688046 1.6111797
-0.076906487 -0.016868344 1.6096936
-0.088101745 -0.016887058 1.6111282
-0.099076398 -0.016864033 1.608493
-0.11035758 -0.016892565 1.610772
-0.12167429 -0.016920816 1.6129726
-0.14397156 -0.016924696 1.612157
-0.15516777 -0.016931411 1.6121323
-0.065611295 -0.027881999 1.6050326
-0.076809451 -0.027930671 1.6075433
-0.087990701 -0.027961701 1.6089783
-0.099134065 -0.027975084 1.6093379
-0.12107427 -0.027914621 1.6048429
-0.13277775 -0.028046899 1.6119514
-0.15468825 -0.02798377 1.607002
-0.098912671 0.12715763 1.6025999
-0.12110156 0.12719543 1.6020932
-0.14347056 0.12738146 1.6032692
-0.065597117 0.11592879 1.6021247
-0.087809496 0.11604586 1.6030706
-0.098808371 0.11595879 1.6014385
-0.13193661 0.11590074 1.5990767
-0.14296746 0.11587775 1.598139
-0.1544902 0.10513765 1.6028457
-0.15403809 0.093771957 1.5985562
-0.076684289 0.082770362 1.6036731
-0.10983633 0.082736753 1.6017642
-0.13166836 0.082554877 1.5971284
-0.14276479 0.082589403 1.5971874
-0.13208951 0.071746886 1.6026325
-0.14286882 0.071600184 1.5987083
-0.13145185 0.060381923 1.5951165
-0.10980026 0.049537305 1.6021209
-0.12083744 0.049529009 1.6013341
-0.13186881 0.049519923 1.6004719
-0.1428939 0.049510058 1.5995345
-0.15381728 0.049468897 1.5975273
-0.13179593 0.038445115 1.5997757
-0.14272682 0.038413748 1.5978432
-0.15401685 0.038476601 1.5998173
-0.065828018 0.12743773 1.6072729
