# .PCD v0.7 - Point Cloud Data file format
VERSION 0.7
FIELDS x y z rgb
SIZE 4 4 4 4
TYPE F F F U
COUNT 1 1 1 1
WIDTH 1084
HEIGHT 1
VIEWPOINT 0 0 0 1 0 0 0
POINTS 1084
DATA ascii
-1.0860324 1.0468631 1.9820035 4294901760
-1.0515431 1.044366 1.9880024 4294901760
-0.96136183 1.0489304 1.9864651 4294901760
-0.95901322 1.0463679 1.9815747 4294901760
-0.89075136 1.040175 1.9883281 4294901760
-0.8391301 1.0499629 1.9849845 4294901760
-0.60751373 1.0418868 1.9855628 4294901760
-0.49734908 1.0493718 1.9849576 4294901760
-0.43457803 1.0437084 1.9834166 4294901760
-0.41910744 1.0425917 1.9833996 4294901760
-0.40355691 1.0411859 1.9827478 4294901760
-0.23699009 1.0485288 1.9805239 4294901760
-0.19230972 1.0482589 1.9831985 4294901760
-0.16276303 1.049546 1.9874104 4294901760
-0.14756773 1.047389 1.9840609 4294901760
-0.11782441 1.047196 1.9850045 4294901760
-0.0138242 1.0476651 1.9881788 4294901760
0.13450535 1.0451972 1.9804757 4294901760
0.14938056 1.0455158 1.9803821 4294901760
0.42100066 1.0420779 1.9821224 4294901760
0.57850152 1.040604 1.9886061 4294901760
0.59489232 1.0426984 1.9897064 4294901760
0.61107272 1.044329 1.9898258 4294901760
0.64080721 1.0430825 1.9811742 4294901760
0.65787232 1.0459971 1.9834982 4294901760
0.70621002 1.0497345 1.9803689 4294901760
0.77423751 1.0434501 1.9881746 4294901760
0.78977633 1.0435501 1.9844388 4294901760
0.89357233 1.0409094 1.9891142 4294901760
0.90995198 1.0417361 1.9861652 4294901760
0.92861998 1.0451101 1.9880117 4294901760
0.94582295 1.0467507 1.9864324 4294901760
1.0349531 1.0414743 1.986972 4294901760
1.1671075 1.0441945 1.9894575 4294901760
-1.1254822 1.0538621 1.9841722 4294901760
-0.98022056 1.0522375 1.9878772 4294901760
-0.85672092 1.0524582 1.985468 4294901760
-0.60915625 1.0599593 1.9857098 4294901760
-0.59183383 1.0562706 1.9817442 4294901760
-0.54379892 1.0515767 1.9813615 4294901760
-0.52794838 1.0501534 1.9813317 4294901760
-0.41996151 1.0597526 1.9822379 4294901760
-0.40420538 1.0578685 1.9807354 4294901760
-0.38883582 1.0568897 1.9808604 4294901760
-0.35871178 1.0564983 1.9838368 4294901760
-0.34436381 1.0584718 1.9893192 4294901760
-0.29775876 1.0529873 1.9836994 4294901760
-0.20796573 1.0522199 1.9897579 4294901760
0.24022511 1.0535823 1.9899777 4294901760
0.26998925 1.0530628 1.986461 4294901760
0.27046332 1.0549119 1.9899763 4294901760
0.28482914 1.0526879 1.9843735 4294901760
0.30062762 1.0557168 1.9886733 4294901760
0.34645021 1.0584228 1.9889861 4294901760
0.48476595 1.0502506 1.9887387 4294901760
0.51539385 1.0510587 1.9852921 4294901760
0.67615479 1.0506713 1.9890822 4294901760
0.70740545 1.0515114 1.9837472 4294901760
0.72623557 1.0565672 1.989755 4294901760
0.7430169 1.0584939 1.9897214 4294901760
0.84179646 1.050572 1.9855531 4294901760
0.86105657 1.0550954 1.9898759 4294901760
0.87814122 1.0568391 1.9888104 4294901760
1.0161536 1.0543764 1.981172 4294901760
1.1465045 1.0563264 1.9823129 4294901760
-1.2999402 1.0619556 1.9806135 4294901760
-0.84002858 1.0666634 1.9817995 4294901760
-0.7906397 1.0630867 1.9873825 4294901760
-0.67281926 1.0641358 1.9807285 4294901760
-0.62484294 1.0606911 1.9840022 4294901760
-0.51448685 1.0687013 1.9850765 4294901760
-0.49952996 1.0691428 1.9884346 4294901760
-0.43633115 1.063001 1.9862262 4294901760
-0.42069188 1.0615956 1.9857122 4294901760
-0.40579051 1.062017 1.9885634 4294901760
-0.37511992 1.0605075 1.9895962 4294901760
0.46878022 1.0633935 1.9821384 4294901760
0.48553041 1.0670465 1.986617 4294901760
0.62839639 1.063087 1.9880787 4294901760
0.65860963 1.062461 1.9804544 4294901760
0.66112661 1.0665214 1.9880821 4294901760
0.67518866 1.0644909 1.9809216 4294901760
0.69210607 1.0669522 1.9821049 4294901760
0.80786371 1.0624641 1.9816304 4294901760
0.91390634 1.0620011 1.9895552 4294901760
1.0734397 1.0639969 1.983518 4294901760
1.0913717 1.0658791 1.9815924 4294901760
-1.001379 1.0737813 1.9882189 4294901760
-0.77382869 1.0768199 1.9826121 4294901760
-0.75824833 1.0767034 1.9862458 4294901760
-0.62553543 1.0771497 1.980862 4294901760
-0.61121756 1.0788534 1.9871191 4294901760
-0.59363663 1.0747371 1.982489 4294901760
-0.56327981 1.0750058 1.9887773 4294901760
-0.53059947 1.070617 1.9860507 4294901760
0.51775861 1.0710781 1.9891645 4294901760
0.53291667 1.071 1.9863948 4294901760
0.57981163 1.0734209 1.9825658 4294901760
0.58055466 1.0747964 1.9851261 4294901760
0.6284228 1.0784329 1.9827999 4294901760
0.72824645 1.0749642 1.9899503 4294901760
0.74309593 1.0740652 1.9845804 4294901760
0.75938922 1.0752469 1.9830046 4294901760
0.7609759 1.0774935 1.9871801 4294901760
0.88014627 1.0749495 1.9880143 4294901760
0.91373044 1.0775316 1.9837815 4294901760
1.020052 1.0743423 1.983456 4294901760
1.1300054 1.0721102 1.9820374 4294901760
-1.2260647 1.0877991 1.9822271 4294901760
-1.1110967 1.0877239 1.9820908 4294901760
-1.0015661 1.0898974 1.9831392 4294901760
-0.80965137 1.083277 1.986607 4294901760
-0.79235959 1.0809571 1.9863439 4294901760
-0.72449499 1.0880548 1.980656 4294901760
-0.65808415 1.0804046 1.9804505 4294901760
-0.6445142 1.0833617 1.9891831 4294901760
0.61426532 1.0804448 1.9896432 4294901760
0.64661056 1.0832688 1.9885579 4294901760
0.67735553 1.0832771 1.9819336 4294901760
0.81141102 1.0827125 1.9849929 4294901760
0.9489339 1.0817879 1.9822744 4294901760
-1.3701705 1.0950662 1.9856957 4294901760
-1.114023 1.0905886 1.9873515 4294901760
-0.77647066 1.0960476 1.9839617 4294901760
-0.75904965 1.0933542 1.9829044 4294901760
0.76336372 1.0964311 1.9879917 4294901760
0.91540259 1.0952674 1.9819613 4294901760
0.9345215 1.0992137 1.9844885 4294901760
0.98827857 1.0903387 1.9882625 4294901760
1.1364278 1.094422 1.9879152 4294901760
-0.8805542 1.1096272 1.9835626 4294901760
-0.84767598 1.1078101 1.9889866 4294901760
-0.81283283 1.1031861 1.9889621 4294901760
0.82891619 1.1008483 1.9800087 4294901760
0.8306253 1.1031181 1.984123 4294901760
0.85047716 1.1085932 1.9898046 4294901760
0.95257616 1.1017979 1.9844289 4294901760
-0.95216608 1.1197842 1.9833056 4294901760
-0.91458297 1.1127188 1.9800739 4294901760
-0.89920038 1.1132206 1.9855446 4294901760
1.0261317 1.1127772 1.984311 4294901760
1.1560663 1.1139358 1.9825054 4294901760
1.0096154 1.1282338 1.9828029 4294901760
1.18212 1.1396378 1.9875773 4294901760
-1.2016102 1.1612436 1.9856232 4294901760
0.58860022 -0.4803963 1.9916092 4294901760
0.59024584 -0.48173946 1.9972206 4294901760
0.60523063 -0.48222789 1.9963984 4294901760
0.87645084 -0.48251528 1.9999198 4294901760
0.89078528 -0.48224297 1.9944367 4294901760
0.90696657 -0.48296303 1.9930059 4294901760
0.9226315 -0.48338932 1.9902636 4294901760
0.94120806 -0.48530334 1.9935921 4294901760
0.97480726 -0.48717889 1.9918526 4294901760
1.1183035 -0.4823994 1.9955424 4294901760
1.2914494 -0.48026118 1.9995412 4294901760
0.52952355 -0.47881383 1.995644 4294901760
0.66706115 -0.47086668 1.9994425 4294901760
0.68170309 -0.47097903 1.9966723 4294901760
0.94164336 -0.47059768 1.9968837 4294901760
0.95822066 -0.47140804 1.9956485 4294901760
0.97454661 -0.47207174 1.9936923 4294901760
1.0620087 -0.47772962 1.9923233 4294901760
1.0820912 -0.47991434 1.9961461 4294901760
0.41162357 -0.46047461 1.9979964 4294901760
0.45390913 -0.46027824 1.991033 4294901760
0.46850079 -0.46070892 1.9907345 4294901760
0.49985683 -0.46351132 1.9983469 4294901760
0.55893856 -0.46523374 1.9957578 4294901760
0.57390958 -0.46577343 1.9953895 4294901760
0.5886122 -0.46607414 1.9939123 4294901760
0.61924243 -0.46755895 1.9945247 4294901760
0.76073152 -0.46050039 1.9990555 4294901760
0.77686054 -0.46140268 1.999261 4294901760
0.89014149 -0.46707603 1.995319 4294901760
0.90778834 -0.46853584 1.9971713 4294901760
0.92387509 -0.46915647 1.995319 4294901760
0.93957013 -0.46956158 1.9924535 4294901760
1.0434093 -0.46105182 1.9932882 4294901760
1.1343527 -0.46740165 1.9936038 4294901760
1.1557379 -0.4698697 1.9984652 4294901760
0.29541552 -0.4559522 1.9913582 4294901760
0.58779204 -0.45111281 1.9933008 4294901760
0.60229713 -0.45125747 1.9911028 4294901760
0.61939031 -0.45328954 1.9972101 4294901760
0.63395357 -0.45341992 1.9947864 4294901760
0.64791477 -0.45312339 1.9903971 4294901760
0.66583908 -0.45555124 1.9979783 4294901760
0.68076861 -0.45587048 1.9961468 4294901760
0.69506812 -0.4557634 1.9923571 4294901760
0.72894013 -0.45888141 1.9991854 4294901760
0.8573752 -0.4506129 1.9988195 4294901760
0.9067868 -0.45317066 1.9972192 4294901760
0.92183739 -0.45327011 1.9931563 4294901760
0.98931873 -0.45700023 1.9907128 4294901760
0.99321884 -0.45880181 1.9986213 4294901760
1.0094796 -0.45936057 1.9961039 4294901760
1.1159629 -0.45084465 1.9959928 4294901760
1.1338837 -0.45190012 1.995072 4294901760
1.1524361 -0.45317587 1.9950196 4294901760
1.2272216 -0.45817095 1.9931843 4294901760
-0.7226575 -0.4417285 1.990085 4294901760
-0.49630776 -0.44785625 1.9945437 4294901760
-0.48116285 -0.44698647 1.992946 4294901760
-0.35091391 -0.44367447 1.9955533 4294901760
0.3814446 -0.44414976 1.9940478 4294901760
0.39574882 -0.4443891 1.9933125 4294901760
0.40967095 -0.44419771 1.9905618 4294901760
0.43975714 -0.44612631 1.9952766 4294901760
0.45520401 -0.44739726 1.9988974 4294901760
0.46850306 -0.44654417 1.9928836 4294901760
0.49727261 -0.44693559 1.9900836 4294901760
0.55773914 -0.44995996 1.9936174 4294901760
0.70999879 -0.44159696 1.9924644 4294901760
0.71261024 -0.44322121 1.9998497 4294901760
0.97312695 -0.44147387 1.9952849 4294901760
0.99191535 -0.44318664 1.998212 4294901760
1.0059606 -0.44276062 1.9913262 4294901760
1.0262038 -0.44503495 1.9965774 4294901760
1.1904212 -0.44051912 1.997866 4294901760
-0.83681142 -0.43391305 1.9967505 4294901760
-0.80180848 -0.43090084 1.9907497 4294901760
-0.66081184 -0.43910241 1.9914583 4294901760
-0.64580643 -0.43868256 1.9926741 4294901760
-0.6165666 -0.43833244 1.9971133 4294901760
-0.58501148 -0.43622157 1.993142 4294901760
-0.53927177 -0.43391967 1.990537 4294901760
-0.49563125 -0.4330565 1.9938827 4294901760
-0.12428699 -0.4386926 1.9904293 4294901760
0.014886719 -0.43853253 1.9922086 4294901760
0.38192752 -0.43060318 1.9986358 4294901760
0.39587128 -0.43042365 1.9959803 4294901760
0.41084084 -0.43133339 1.9983433 4294901760
0.43829092 -0.43053231 1.9906276 4294901760
0.4534761 -0.43155876 1.9933141 4294901760
0.48347512 -0.43309832 1.9960626 4294901760
0.5866881 -0.4359805 1.9916412 4294901760
0.64911175 -0.43955821 1.9962469 4294901760
0.66337764 -0.43946785 1.9926831 4294901760
0.87255996 -0.43605837 1.9977225 4294901760
0.8881529 -0.43646201 1.9952632 4294901760
1.0952597 -0.43342313 1.9937769 4294901760
1.1498958 -0.43685925 1.9928125 4294901760
1.167886 -0.43786126 1.9916099 4294901760
-0.7696107 -0.42922547 1.9905773 4294901760
-0.73928118 -0.4285014 1.9945017 4294901760
-0.64614129 -0.42452905 1.9957849 4294901760
-0.63051075 -0.4236894 1.9948596 4294901760
-0.34990275 -0.42836061 1.9917871 4294901760
-0.22216725 -0.42564613 1.9909488 4294901760
-0.1806231 -0.42634308 1.9970194 4294901760
-0.15222299 -0.42505443 1.9924647 4294901760
0.00097474118 -0.42499319 1.9959911 4294901760
0.30888718 -0.42715162 1.9904929 4294901760
0.32339433 -0.42782807 1.992201 4294901760
0.36697134 -0.42961121 1.9957408 4294901760
0.39517835 -0.42967018 1.9924592 4294901760
0.55745918 -0.42119765 1.9967462 4294901760
1.2226133 -0.4255257 1.9900709 4294901760
1.2615988 -0.42826197 1.9904474 4294901760
-1.0210711 -0.41365924 1.9956068 4294901760
-1.0192899 -0.41293764 1.9920987 4294901760
-0.78566158 -0.41548425 1.9927148 4294901760
-0.6768887 -0.41135445 1.9973537 4294901760
-0.52483857 -0.41952974 1.9942518 4294901760
-0.50961852 -0.41870129 1.9927244 4294901760
-0.42141321 -0.41564035 1.991119 4294901760
-0.37875566 -0.41518256 1.9945098 4294901760
-0.32205915 -0.41461775 1.9982857 4294901760
-0.23665918 -0.41265079 1.9964595 4294901760
-0.1800943 -0.41116649 1.99305 4294901760
-0.15214573 -0.41091865 1.9933641 4294901760
-0.13827494 -0.41106504 1.9947459 4294901760
-0.12416255 -0.41044545 1.9923168 4294901760
-0.11059529 -0.41169891 1.9989868 4294901760
-0.082479157 -0.41058752 1.9944319 4294901760
-0.068520479 -0.41028884 1.9933152 4294901760
0.00097386789 -0.41069984 1.9961004 4294901760
0.25284302 -0.41305622 1.9971491 4294901760
0.28079909 -0.41301382 1.9944786 4294901760
0.3383657 -0.41497943 1.9982948 4294901760
0.35257316 -0.41515592 1.9975462 4294901760
0.38015559 -0.41456196 1.9912578 4294901760
0.41063571 -0.41699225 1.9993209 4294901760
0.42517883 -0.41740203 1.9993454 4294901760
0.43807101 -0.41621682 1.9916059 4294901760
0.45411196 -0.41800389 1.9981269 4294901760
1.2451042 -0.41239125 1.9973528 4294901760
1.2643014 -0.41358414 1.9968622 4294901760
1.3002932 -0.41511703 1.9913994 4294901760
1.3202785 -0.4164837 1.9914008 4294901760
-1.0891528 -0.40156165 1.9913796 4294901760
-0.90213948 -0.40746558 1.9984647 4294901760
-0.88217247 -0.40509564 1.9911169 4294901760
-0.8674196 -0.40508032 1.9953268 4294901760
-0.8518889 -0.40469494 1.9976169 4294901760
-0.81642443 -0.40171638 1.9909109 4294901760
-0.80065125 -0.40112725 1.9919013 4294901760
-0.59805804 -0.40678775 1.9901606 4294901760
-0.58305699 -0.40627369 1.9904338 4294901760
-0.53821963 -0.40469342 1.9905907 4294901760
-0.52432245 -0.40491942 1.9942225 4294901760
-0.50992012 -0.40475699 1.9958557 4294901760
-0.479076 -0.40268925 1.9902242 4294901760
-0.46585432 -0.40346685 1.9963182 4294901760
-0.45085412 -0.4027046 1.994665 4294901760
-0.44999495 -0.40193716 1.9908344 4294901760
-0.43527573 -0.40135995 1.9900242 4294901760
-0.42179954 -0.40192854 1.9948703 4294901760
-0.40730366 -0.40153125 1.9948181 4294901760
-0.026772074 -0.40948766 1.9900454 4294901760
0.014857328 -0.40989599 1.9921271 4294901760
0.54016334 -0.40466136 1.9900745 4294901760
1.3197036 -0.40060464 1.9925827 4294901760
-1.2174995 -0.39364731 1.9901868 4294901760
-0.94815636 -0.39332244 1.9901687 4294901760
-0.91722488 -0.39277902 1.9965742 4294901760
-0.90007901 -0.39176252 1.9958245 4294901760
-0.88489288 -0.39157948 1.9992601 4294901760
-0.75316811 -0.39913696 1.9932193 4294901760
-0.72124994 -0.39753246 1.9922518 4294901760
-0.6142965 -0.39379081 1.9956484 4294901760
-0.58403027 -0.39268291 1.9956814 4294901760
-0.5685873 -0.39187375 1.9942687 4294901760
-0.55415094 -0.39173469 1.9962138 4294901760
-0.5376811 -0.39011288 1.9904612 4294901760
-0.52404618 -0.3905158 1.9950401 4294901760
-0.32080862 -0.39901707 1.9923478 4294901760
-0.26448202 -0.39846945 1.9949963 4294901760
-0.23649782 -0.39840028 1.9969546 4294901760
-0.22172283 -0.39695755 1.990719 4294901760
-0.19406952 -0.39733395 1.9945318 4294901760
-0.17973748 -0.39645106 1.9909223 4294901760
-0.1664342 -0.39787954 1.9989464 4294901760
-0.15243632 -0.3977569 1.999056 4294901760
-0.13814217 -0.39675871 1.994665 4294901760
-0.1242387 -0.39678463 1.9953967 4294901760
-0.11026901 -0.396579 1.9948908 4294901760
-0.096224569 -0.39600641 1.99246 4294901760
0.9361397 -0.39363283 1.9957453 4294901760
1.2235625 -0.39490718 1.995747 4294901760
1.2589118 -0.39629248 1.9903151 4294901760
1.2617956 -0.39720029 1.9949098 4294901760
-1.1070433 -0.38738164 1.9928621 4294901760
-1.0908166 -0.38701007 1.996411 4294901760
-1.0363235 -0.38367876 1.9948884 4294901760
-0.98285365 -0.38044021 1.9928547 4294901760
-0.84877205 -0.38856259 1.992186 4294901760
-0.83277881 -0.38793766 1.9930565 4294901760
-0.80133003 -0.38687912 1.995519 4294901760
-0.79914355 -0.38582352 1.9900323 4294901760
-0.78575343 -0.38639307 1.9968432 4294901760
-0.76914591 -0.38537213 1.9952894 4294901760
-0.73612142 -0.38330919 1.9917828 4294901760
-0.71987247 -0.38235557 1.9902951 4294901760
-0.70466113 -0.3819254 1.9914647 4294901760
-0.5230546 -0.38977689 1.9912359 4294901760
-0.50820351 -0.38925016 1.9909524 4294901760
-0.49338281 -0.38871723 1.9905602 4294901760
-0.42137364 -0.38744405 1.9946824 4294901760
-0.40650192 -0.3866896 1.9926965 4294901760
-0.37784904 -0.38612717 1.9934225 4294901760
-0.30729228 -0.38562164 1.9987211 4294901760
-0.29258415 -0.38470688 1.9953259 4294901760
-0.27788401 -0.38371131 1.9914356 4294901760
-0.26432732 -0.38427293 1.9956226 4294901760
-0.25050792 -0.38449398 1.997964 4294901760
-0.24990137 -0.38356298 1.9930891 4294901760
-0.23625647 -0.38403881 1.9966985 4294901760
-0.19377644 -0.3828232 1.9932842 4294901760
-0.18025358 -0.38364872 1.9984735 4294901760
-0.15198426 -0.38267207 1.9948653 4294901760
-0.13776493 -0.38180166 1.990954 4294901760
-0.12421219 -0.38279045 1.9967496 4294901760
-0.11015586 -0.38228106 1.9946066 4294901760
-0.096276 -0.38232535 1.9953111 4294901760
1.3631388 -0.38833693 1.9989029 4294901760
1.4002365 -0.38984665 1.992783 4294901760
-1.1066509 -0.37207016 1.9940436 4294901760
-1.0912117 -0.37197983 1.99903 4294901760
-1.0720489 -0.37059969 1.9969286 4294901760
-0.93204308 -0.37797132 1.9939386 4294901760
-0.91438311 -0.37679726 1.9922283 4294901760
-0.89719898 -0.37578392 1.991269 4294901760
-0.86613685 -0.37508583 1.9961668 4294901760
-0.85062611 -0.3747277 1.9984366 4294901760
-0.84883642 -0.37393928 1.9941994 4294901760
-0.83173525 -0.37284175 1.9923923 4294901760
-0.81742418 -0.37297803 1.997141 4294901760
-0.80072176 -0.37200832 1.9958349 4294901760
-0.79908133 -0.37124616 1.9917146 4294901760
-0.78443909 -0.37120122 1.9953125 4294901760
-0.76978934 -0.37115094 1.998803 4294901760
-0.59896696 -0.37883615 1.9969481 4294901760
-0.56774509 -0.37707481 1.993112 4294901760
-0.50985771 -0.37632692 1.9992877 4294901760
-0.49452236 -0.37545753 1.9969906 4294901760
-0.47883362 -0.37426069 1.9928557 4294901760
-0.46513268 -0.37459204 1.9968456 4294901760
-0.37854984 -0.37278646 1.9989119 4294901760
-0.30681211 -0.37102854 1.9973184 4294901760
-0.29298896 -0.37124059 1.9998511 4294901760
-0.27875471 -0.37092701 1.9994644 4294901760
-0.25036988 -0.37031832 1.9985882 4294901760
1.4018689 -0.37438348 1.9970514 4294901760
-1.1967195 -0.36118108 1.9910661 4294901760
-1.1791941 -0.36051792 1.9933251 4294901760
-1.0538896 -0.36953196 1.996406 4294901760
-1.0344388 -0.3679738 1.993095 4294901760
-1.015982 -0.36672863 1.9913715 4294901760
-0.94801325 -0.3636052 1.9935955 4294901760
-0.93134284 -0.36288771 1.9942501 4294901760
-0.91553134 -0.36248708 1.9965655 4294901760
-0.7520237 -0.36956754 1.9938804 4294901760
-0.73538417 -0.3684862 1.9915849 4294901760
-0.70362514 -0.36698368 1.9903129 4294901760
-0.6445868 -0.36612183 1.9984962 4294901760
-0.58238751 -0.36312059 1.9936041 4294901760
-0.56729579 -0.36256915 1.9932715 4294901760
-0.26374587 -0.36949494 1.9929307 4294901760
-0.25012714 -0.36995929 1.9966358 4294901760
-0.23578218 -0.36934096 1.9943868 4294901760
-0.19376341 -0.36888763 1.9948701 4294901760
-0.17962833 -0.36842558 1.9932054 4294901760
-0.16590281 -0.36879647 1.9960176 4294901760
-0.12388104 -0.36789742 1.9930964 4294901760
1.2198229 -0.36284599 1.9933952 4294901760
-1.1422848 -0.35855514 1.993964 4294901760
-1.1253633 -0.35802171 1.9966305 4294901760
-1.1059879 -0.35668224 1.9946554 4294901760
-1.0524228 -0.35396799 1.9954013 4294901760
-1.0176724 -0.3523576 1.9964924 4294901760
-0.96698266 -0.35027614 1.9992696 4294901760
-0.84812123 -0.35898376 1.9942933 4294901760
-0.72041059 -0.35378462 1.9953388 4294901760
-0.40604928 -0.35818788 1.9939247 4294901760
-0.39199519 -0.35817099 1.9956827 4294901760
-0.32058775 -0.35679886 1.9962016 4294901760
-0.305971 -0.35605919 1.9934734 4294901760
-0.29268172 -0.35686749 1.9994131 4294901760
-0.27815643 -0.3561742 1.9968095 4294901760
-0.26333949 -0.35501438 1.9914988 4294901760
-0.2361449 -0.35596085 1.9991422 4294901760
-0.20720479 -0.35417718 1.9910718 4294901760
-0.16551173 -0.35405356 1.9929246 4294901760
-0.15201116 -0.35492444 1.9985899 4294901760
-0.13774431 -0.3540014 1.9940113 4294901760
1.0218636 -0.35308108 1.9999155 4294901760
1.2785085 -0.35082254 1.9959725 4294901760
1.4023509 -0.35858908 1.9995905 4294901760
-1.2546077 -0.34911355 1.9934095 4294901760
-1.1222004 -0.34183618 1.9927186 4286122305
-1.1040695 -0.34092471 1.9929053 4286122305
-0.94834226 -0.34889734 1.9960467 4294901760
-0.89703041 -0.34626868 1.9944302 4286122305
-0.88189119 -0.34610507 1.9978324 4286122305
-0.84716308 -0.34395432 1.9937353 4286122305
-0.831195 -0.34339896 1.994574 4286122305
-0.81615114 -0.34321243 1.9974846 4286122305
-0.76681942 -0.3407442 1.9944669 4286122305
-0.39233339 -0.34443295 1.9990479 4294901760
-0.29222831 -0.34235248 1.9978975 4294901760
-0.26421076 -0.34223175 1.9997405 4294901760
-0.24959636 -0.34133306 1.9956242 4294901760
-0.23596905 -0.34175783 1.9992386 4294901760
-0.22187197 -0.34151283 1.9988409 4294901760
-0.17985907 -0.34107837 1.9990274 4294901760
-0.16581923 -0.34081197 1.9982413 4294901760
-0.15194707 -0.34087294 1.9993254 4294901760
1.3994191 -0.34194952 1.997141 4294901760
1.4011153 -0.34236401 1.9995805 4294901760
-1.3308883 -0.33722723 1.990784 4294901760
-1.2732449 -0.3344346 1.9937304 4294901760
-1.2534397 -0.33330059 1.9932514 4294901760
-1.1969986 -0.33054543 1.9949988 4286122305
-1.1804676 -0.33021784 1.9989525 4286122305
-1.0491065 -0.33785033 1.9907788 4286122305
-0.96473855 -0.3346051 1.9962796 4294901760
-0.93093812 -0.33314353 1.9967963 4286122305
-0.92969245 -0.33269778 1.9941038 4286122305
-0.91165531 -0.33151096 1.9914447 4286122305
-0.64264947 -0.33641469 1.9957863 4294901760
-0.61196709 -0.33527753 1.9949406 4286122305
-0.42101812 -0.33085012 1.9996699 4286122305
-0.13766348 -0.33993033 1.9944121 4294901760
-0.10964453 -0.33902687 1.990194 4294901760
-1.1774639 -0.32937759 1.9938267 4286122305
-1.1044216 -0.32588989 1.9952062 4286122305
-1.033662 -0.32271004 1.99672 4286122305
-0.99859983 -0.32107976 1.996581 4286122305
-0.98115236 -0.32025477 1.9962903 4286122305
-0.8461408 -0.32893294 1.9929489 4286122305
-0.73480237 -0.32491159 1.9950036 4286122305
-0.67239302 -0.32265693 1.9944899 4294901760
-0.41920078 -0.329422 1.9909719 4286122305
-0.3629218 -0.32919088 1.9968032 4294901760
-0.3342801 -0.32855272 1.9961135 4294901760
-0.32041648 -0.32866091 1.9982824 4294901760
-0.30538636 -0.32752788 1.9927758 4294901760
-0.29191187 -0.32803467 1.9972552 4294901760
-1.2522521 -0.31751156 1.9929811 4286122305
-1.2337402 -0.31673139 1.994275 4286122305
-1.195338 -0.31474829 1.993824 4286122305
-1.1558877 -0.3123773 1.9904014 4286122305
-1.1224821 -0.31155589 1.9964803 4286122305
-1.1028504 -0.31030422 1.9939286 4286122305
-0.97854871 -0.3194049 1.9909519 4286122305
-0.96333432 -0.31928158 1.9949607 4286122305
-0.94600862 -0.31844366 1.9943752 4286122305
-0.89761531 -0.31703067 1.9989887 4286122305
-0.86458617 -0.31572869 1.9993037 4286122305
-0.78228718 -0.31216058 1.996401 4286122305
-0.42015603 -0.31613472 1.9970433 4286122305
-0.41934803 -0.31552675 1.9931732 4286122305
-1.2302972 -0.30045536 1.9902118 4286122305
-1.049759 -0.30803737 1.9952315 4286122305
-0.98101616 -0.30533063 1.997553 4286122305
-0.96148753 -0.30386141 1.9926387 4286122305
-0.94663352 -0.30384666 1.9972324 4286122305
-0.92944014 -0.30306861 1.9966782 4286122305
-0.67121011 -0.30778691 1.9924574 4294901760
-0.62476563 -0.30605403 1.9903735 4294901760
-0.56643993 -0.30527884 1.99654 4286122305
-0.43455562 -0.30234841 1.9981714 4286122305
-0.41989323 -0.30190781 1.9972163 4286122305
1.3174522 -0.30589584 1.9998113 4281584566
-1.2115273 -0.29962006 1.9907464 4286122305
-1.1570485 -0.29745272 1.9939398 4286122305
-1.1185573 -0.2953366 1.9909552 4286122305
-1.101739 -0.29488477 1.993409 4286122305
-1.0840042 -0.29417151 1.9939785 4286122305
-1.0324644 -0.29237923 1.9974321 4286122305
-1.0140268 -0.29138523 1.9956409 4286122305
-0.9799974 -0.29014936 1.996929 4286122305
-0.82972634 -0.29906869 1.9957014 4286122305
-0.7989608 -0.29846483 1.9995254 4286122305
-0.78216851 -0.29760978 1.997568 4286122305
-0.68652672 -0.29391876 1.9936224 4294901760
-0.67005861 -0.29298109 1.9904436 4294901760
-1.2878259 -0.28759837 1.9904891 4294901760
-1.2722445 -0.28758648 1.9968358 4294901760
-1.2534921 -0.28684875 1.9980043 4286122305
-1.2316763 -0.28538272 1.9939295 4294901760
-1.2120341 -0.28438959 1.9930483 4286122305
-1.1762373 -0.28316537 1.9963255 4286122305
-1.1401143 -0.28179517 1.9981271 4286122305
-1.1044277 -0.28046069 1.9997443 4294901760
-0.99434793 -0.28999951 1.9910239 4286122305
-0.96283579 -0.28945863 1.996915 4286122305
-0.94298446 -0.28792512 1.9909248 4286122305
-0.92846251 -0.28799593 1.9960102 4286122305
-0.86301804 -0.28586641 1.9985776 4286122305
-0.79663724 -0.28309408 1.9950696 4286122305
-0.70306259 -0.28047779 1.9980139 4286122305
-0.49087015 -0.28836682 1.9914101 4286122305
-0.41942194 -0.28755552 1.9963211 4286122305
-1.3107802 -0.27361926 1.9967822 4294901760
-1.2870936 -0.27191457 1.9907538 4294901760
-1.117416 -0.27992079 1.9903404 4286122305
-1.1020423 -0.27985495 1.995392 4294901760
-1.0477511 -0.27748236 1.9942845 4294901760
-1.0306351 -0.27690932 1.995273 4286122305
-1.0295787 -0.27662548 1.9932121 4286122305
-1.0116255 -0.27580303 1.992278 4286122305
-0.99660313 -0.27576703 1.9969718 4286122305
-0.94640833 -0.27416673 1.9995919 4286122305
-0.92691654 -0.27278709 1.9940344 4286122305
-0.87847167 -0.27147159 1.9975477 4286122305
-0.86299586 -0.27121466 1.9998821 4286122305
-0.83019751 -0.27007303 1.9996058 4286122305
-0.65488869 -0.27832407 1.9922246 4294901760
-0.55074012 -0.27614808 1.9963764 4286122305
-0.4333663 -0.27349851 1.9953254 4286122305
-0.41853964 -0.27296668 1.993384 4286122305
-1.1948093 -0.26861355 1.9973129 4286122305
-1.1565148 -0.26685286 1.9958299 4286122305
-1.1016617 -0.26465252 1.9960511 4294901760
-1.0640999 -0.26283696 1.9929703 4286122305
-1.0145693 -0.26167008 1.9994494 4286122305
-0.99399877 -0.26019505 1.9930326 4286122305
-0.77938366 -0.26764664 1.9931237 4286122305
-0.68649501 -0.26525944 1.9961978 4294901760
-0.52120501 -0.26137865 1.9978665 4286122305
1.1418788 -0.26649413 1.998053 4281584566
-1.192315 -0.25275302 1.9944134 4286122305
-1.1730762 -0.25190711 1.9935886 4294901760
-1.15614 -0.25153998 1.996471 4286122305
-0.94159025 -0.25804254 1.9906365 4286122305
-0.92688096 -0.25804788 1.9952575 4286122305
-0.79670244 -0.25410929 1.9978296 4286122305
-1.3108743 -0.2424016 1.9995207 4294901760
-1.3076189 -0.24179961 1.9945167 4294901760
-1.2882545 -0.24109136 1.9951411 4286122305
-1.1030785 -0.24986771 1.9999176 4286122305
-1.0460165 -0.24710695 1.9935535 4286122305
-1.0314587 -0.24720289 1.999473 4294901760
-0.95866209 -0.24391027 1.9921156 4286122305
-0.9269014 -0.24332446 1.9965295 4286122305
-0.90910494 -0.24250624 1.9942466 4286122305
-0.89280128 -0.24206586 1.9949926 4286122305
-0.5336293 -0.24648523 1.9902383 4286122305
-1.2668244 -0.23997448 1.9922267 4286122305
-1.1936074 -0.2377106 1.9978192 4286122305
-1.1743517 -0.23691583 1.9969949 4286122305
-1.154922 -0.23606461 1.9955672 4286122305
-1.1370419 -0.23551168 1.9965638 4286122305
-1.0832174 -0.2337207 1.9977614 4286122305
-1.0476056 -0.23250158 1.9977932 4286122305
-0.78014237 -0.23897551 1.9975215 4286122305
-0.77870566 -0.2385354 1.9938143 4286122305
-0.54830706 -0.23267481 1.9910573 4286122305
-0.46109721 -0.2313187 1.9934198 4286122305
-0.44774827 -0.23165673 1.9984602 4286122305
-0.4330985 -0.23132189 1.9975826 4286122305
-0.41747087 -0.2304249 1.9917351 4286122305
-1.2869271 -0.22532472 1.9942404 4286122305
-1.268696 -0.22484389 1.9963597 4286122305
-1.2083232 -0.22228368 1.9919634 4286122305
-1.1890467 -0.2215444 1.9912723 4286122305
-1.1726016 -0.2213203 1.995139 4286122305
-1.1512089 -0.22014421 1.9902378 4294901760
-0.97620893 -0.2298007 1.9942576 4286122305
-0.96059787 -0.22960845 1.9973334 4286122305
-0.959741 -0.22940363 1.9955379 4286122305
-0.94119579 -0.22848986 1.9921814 4286122305
-0.92566013 -0.22828925 1.9949886 4286122305
-0.84431744 -0.22620064 1.9980513 4286122305
-0.76451486 -0.22416906 1.9992927 4286122305
-0.73249948 -0.22321598 1.9978896 4286122305
-0.60964608 -0.22039843 1.9978019 4286122305
-1.1184852 -0.21967271 1.9972361 4286122305
-1.0814093 -0.21829641 1.995522 4286122305
-0.96037793 -0.21476489 1.9979631 4286122305
-0.95737809 -0.21409406 1.9916741 4286122305
-0.90664476 -0.21257029 1.991028 4286122305
-0.82759118 -0.21107714 1.9979326 4286122305
-0.46143264 -0.21747445 1.9959205 4286122305
-0.4175739 -0.21653008 1.9932603 4286122305
1.3932743 -0.21388741 1.9994749 4294901760
-1.2072859 -0.20679718 1.9913129 4286122305
-1.1923345 -0.20685694 1.9978932 4294901760
-1.1549125 -0.20564222 1.9977537 4286122305
-1.1340927 -0.20463005 1.9935342 4286122305
-1.1182283 -0.20449674 1.9978286 4286122305
-1.1004539 -0.20400564 1.9985014 4286122305
-1.0961552 -0.20320876 1.9906346 4286122305
-1.0816284 -0.20330341 1.9969751 4286122305
-1.0644339 -0.20289223 1.9982185 4286122305
-0.97748834 -0.20044957 1.9990083 4286122305
-0.53427291 -0.20452522 1.9958192 4286122305
-1.3646539 -0.19654275 1.9928793 4294901760
-1.3051693 -0.19469459 1.9940387 4294901760
-1.2064873 -0.19137485 1.990981 4286122305
-1.1920524 -0.19151151 1.998412 4286122305
-1.1710546 -0.19058366 1.9945415 4286122305
-1.1690476 -0.19025704 1.9910969 4286122305
-1.1556262 -0.19054966 1.9999856 4286122305
-0.95700067 -0.19927068 1.9918967 4286122305
-0.92604935 -0.19895414 1.9979242 4286122305
-0.90887874 -0.19841816 1.9969763 4286122305
-0.87671155 -0.19778304 1.9992203 4286122305
-0.85813391 -0.19687711 1.9941972 4286122305
-0.74675155 -0.19441707 1.9959966 4286122305
-0.73179209 -0.19426325 1.9979411 4294901760
-0.6395973 -0.1924628 1.9987396 4286122305
-0.62410587 -0.19207625 1.9976735 4286122305
0.52127641 -0.19011749 1.9954513 4294901760
-1.1340616 -0.18948948 1.9944605 4286122305
-1.1136016 -0.18858768 1.9904741 4286122305
-1.0954061 -0.18804993 1.990235 4286122305
-1.081046 -0.18816476 1.9968618 4286122305
-1.0791594 -0.18783638 1.9933501 4286122305
-1.0621511 -0.18748243 1.9948655 4286122305
-1.0083655 -0.18584913 1.9926291 4286122305
-0.99287212 -0.1857277 1.9962436 4286122305
-0.9741931 -0.18499763 1.9931625 4286122305
-0.95875293 -0.1848696 1.9965153 4286122305
-0.89113092 -0.18311109 1.9953722 4286122305
-0.85699242 -0.18207268 1.9924431 4286122305
-0.82678187 -0.18182515 1.9978629 4286122305
-0.79245549 -0.18062152 1.9923218 4286122305
-0.7471258 -0.18012734 1.9979016 4286122305
-0.4458997 -0.1888056 1.9930524 4286122305
-0.43193462 -0.18880551 1.9950749 4286122305
0.52077657 -0.18993521 1.9935232 4294901760
-1.2865896 -0.1787231 1.9967557 4294901760
-1.2649926 -0.17786781 1.993513 4294901760
-1.1902292 -0.17594555 1.9962493 4286122305
-1.1697533 -0.17516643 1.99322 4286122305
-1.1533483 -0.17498443 1.9969231 4286122305
-1.1340139 -0.17434721 1.9952816 4286122305
-1.0955964 -0.17306001 1.9914802 4286122305
-1.0812336 -0.17316571 1.9981073 4286122305
-1.0784031 -0.17271239 1.9928364 4286122305
-1.0631115 -0.17266378 1.9975752 4286122305
-0.97392732 -0.17017502 1.993487 4286122305
-0.74573904 -0.179793 1.9941646 4286122305
-0.65351683 -0.17814127 1.995586 4286122305
-0.6244241 -0.1779601 1.9995724 4294901760
-0.53253227 -0.17577915 1.9910369 4286122305
-0.50493872 -0.17594855 1.9977983 4286122305
-0.46128523 -0.1753808 1.9980017 4286122305
-0.44663668 -0.17512962 1.9972116 4286122305
-0.43097532 -0.1744523 1.9914449 4286122305
-1.3634377 -0.16499896 1.9929081 4294901760
-1.3034382 -0.16337621 1.9931709 4294901760
-1.2869762 -0.16325799 1.9982187 4294901760
-1.1916049 -0.16085817 1.9994159 4286122305
-0.95749021 -0.16987963 1.9947349 4286122305
-0.8739295 -0.16799042 1.9946022 4286122305
-0.85831612 -0.16778886 1.9963936 4286122305
-0.84087628 -0.16721721 1.993649 4286122305
-0.82556379 -0.16705589 1.9957392 4286122305
-0.76229662 -0.16591072 1.9971851 4286122305
-0.66803253 -0.16398321 1.9941317 4286122305
-0.65178573 -0.16347855 1.9910661 4294901760
-0.63712263 -0.16335747 1.9926234 4294901760
-0.54888844 -0.16242465 1.9978033 4286122305
-0.47399116 -0.16093065 1.9911038 4286122305
-0.46048012 -0.16109109 1.9952637 4286122305
-0.44520795 -0.16062617 1.991546 4286122305
-0.43182254 -0.16083394 1.9961623 4286122305
-1.1535323 -0.1598203 1.9980787 4286122305
-1.1139727 -0.15851466 1.9928683 4286122305
-1.0795186 -0.15788309 1.9957331 4286122305
-1.0452203 -0.15723886 1.9980215 4294901760
-0.85910589 -0.15336485 1.999024 4286122305
-0.84049791 -0.15263312 1.9935189 4286122305
-0.83972788 -0.15249327 1.9916784 4286122305
-0.76271439 -0.15159178 1.9990493 4286122305
-0.74495149 -0.15091251 1.9936239 4286122305
-0.71416545 -0.15047103 1.9947017 4286122305
-0.70021039 -0.1505459 1.9990689 4294901760
-1.3068888 -0.14823754 1.999272 4294901760
-1.2442386 -0.14636289 1.9928674 4294901760
-1.1882224 -0.1451543 1.9944602 4286122305
-1.1541957 -0.14471143 1.9999958 4286122305
-1.1326933 -0.14391081 1.994523 4286122305
-1.0987973 -0.14343272 1.998917 4286122305
-1.0773152 -0.14258361 1.9923724 4286122305
-1.0444521 -0.14218764 1.9972812 4286122305
-0.97596401 -0.14092483 1.9992174 4286122305
-0.60764444 -0.14890327 1.9955281 4286122305
-0.57869035 -0.14873739 1.9988481 4286122305
-0.51855415 -0.147717 1.995226 4286122305
-0.50463134 -0.14775173 1.9980742 4286122305
-0.46122596 -0.14734574 1.9992324 4286122305
-0.4459314 -0.14692129 1.9955164 4286122305
-0.43217501 -0.14699255 1.9985123 4286122305
-1.2654064 -0.1315911 1.9964983 4294901760
-1.2465051 -0.13122723 1.9972214 4294901760
-1.2257876 -0.13066068 1.9947084 4294901760
-0.92458528 -0.13987048 1.9980494 4286122305
-0.85596961 -0.1382798 1.9923755 4286122305
-0.84062064 -0.1381444 1.9945158 4286122305
-0.83985049 -0.13801783 1.9926745 4286122305
-0.76129591 -0.13692679 1.9959935 4286122305
-0.7449457 -0.13656616 1.9942957 4286122305
-0.65199023 -0.13513924 1.9931072 4294901760
-0.60783213 -0.13479057 1.9968156 4286122305
-0.59142017 -0.13427898 1.9919864 4286122305
-0.57767594 -0.13436289 1.995979 4286122305
-0.56310004 -0.13425268 1.9969944 4286122305
-0.54848635 -0.13412762 1.9977112 4286122305
-0.53399324 -0.13402623 1.9987084 4286122305
-0.51938075 -0.13388853 1.9990858 4286122305
-0.46040651 -0.13310258 1.9962991 4286122305
-0.44664824 -0.13316911 1.9993941 4286122305
-0.43035808 -0.13246065 1.9906863 4286122305
-0.41623503 -0.13239412 1.9916216 4286122305
1.3884588 -0.13432118 1.9968855 4281584566
-1.1717691 -0.12977344 1.9989661 4294901760
-1.1523621 -0.12930492 1.997476 4286122305
-1.133527 -0.12888892 1.9966818 4286122305
-1.1133113 -0.12830256 1.9931011 4286122305
-1.0970285 -0.1281596 1.9963478 4286122305
-1.0785571 -0.12775341 1.9953567 4286122305
-1.0607781 -0.12741895 1.9953817 4286122305
-1.0238789 -0.12655513 1.9920126 4286122305
-0.99259341 -0.12635429 1.9987487 4286122305
-0.98994535 -0.1260172 1.9933752 4286122305
-0.94107425 -0.12541763 1.9979867 4286122305
-0.93853766 -0.12507959 1.9925598 4286122305
-0.92512262 -0.12525095 1.9998671 4286122305
-0.87383413 -0.12422933 1.9965118 4286122305
-0.75963038 -0.12227561 1.9922131 4286122305
-0.72796077 -0.12177937 1.991161 4286122305
-0.65392709 -0.12130321 1.9996804 4294901760
-0.59319293 -0.12053427 1.9986016 4286122305
-0.54848278 -0.12003778 1.9982899 4286122305
-1.3645433 -0.11804166 1.9966744 4294901760
-1.282469 -0.11629283 1.9932674 4294901760
-1.2637467 -0.1159938 1.99448 4294901760
-1.2259309 -0.11533837 1.9955586 4286122305
-1.2047961 -0.11478605 1.9919928 4286122305
-1.1863146 -0.11447559 1.9925286 4294901760
-1.1515039 -0.11404327 1.9965829 4286122305
-1.1331686 -0.11372513 1.9966487 4286122305
-1.0761646 -0.11250875 1.991491 4286122305
-1.0595032 -0.11232851 1.9935578 4286122305
-1.0427166 -0.11212964 1.9951922 4286122305
-1.0092446 -0.11172555 1.9980465 4286122305
-0.99006003 -0.11123934 1.9941911 4286122305
-0.97315794 -0.11099871 1.9946594 4286122305
-0.92148095 -0.11011495 1.9925071 4286122305
-0.90806967 -0.11026451 1.9996983 4286122305
-0.53329927 -0.11979192 1.9966801 4286122305
-0.44614872 -0.11904748 1.9977211 4286122305
-0.43083683 -0.11867858 1.9934951 4286122305
0.54896146 -0.11971206 1.9924682 4294901760
-1.2847511 -0.10100775 1.9973871 4294901760
-0.90560764 -0.10996556 1.9942349 4286122305
-0.88895088 -0.10971455 1.9940101 4286122305
-0.66904074 -0.10720614 1.9997345 4294901760
-0.62223631 -0.10651527 1.9958533 4294901760
-0.57754916 -0.10611209 1.996662 4286122305
-0.56281483 -0.10599464 1.9970967 4286122305
-0.50386959 -0.10545778 1.9967934 4286122305
-0.48987597 -0.10546423 1.9992152 4286122305
-0.46074995 -0.1052183 1.9988986 4286122305
-0.45963651 -0.10496403 1.9940308 4286122305
0.51902598 -0.1052893 1.990878 4294901760
0.52077693 -0.10564449 1.9976462 4294901760
0.54863328 -0.10559817 1.9917926 4294901760
1.3281853 -0.10179575 1.9989947 4281584566
-1.1670032 -0.098906241 1.9919108 4294901760
-1.149636 -0.098717555 1.9938487 4294901760
-1.0939201 -0.097797282 1.9917668 4286122305
-1.0758017 -0.097514585 1.9913343 4286122305
-1.0397567 -0.096942797 1.9900001 4286122305
-0.99060196 -0.096499652 1.9958018 4286122305
-0.9726038 -0.096183419 1.9940227 4286122305
-0.93902403 -0.095767774 1.9946805 4286122305
-0.9036479 -0.095136143 1.9903849 4286122305
-0.8902539 -0.095264286 1.9974543 4286122305
-0.77462476 -0.093650118 1.9912378 4294901760
-0.74567258 -0.09362185 1.9979078 4286122305
-0.71218669 -0.092999294 1.9914467 4286122305
-0.68235064 -0.092821278 1.9942204 4294901760
-0.53316545 -0.09164875 1.9971584 4286122305
-0.48969266 -0.091405511 1.9989165 4286122305
-0.47454882 -0.091189422 1.9963776 4286122305
-0.45946354 -0.090971783 1.9937257 4286122305
-0.44486958 -0.090840846 1.9929127 4286122305
0.54908681 -0.091631547 1.9939114 4294901760
-1.3620024 -0.086486243 1.993956 4294901760
-1.2432064 -0.084795445 1.9935158 4286122305
-1.2249501 -0.084595524 1.9949498 4286122305
-1.207595 -0.084453568 1.9976534 4286122305
-1.1681093 -0.083815932 1.9942693 4294901760
-1.1485785 -0.083499931 1.9924537 4294901760
-1.1327286 -0.083446659 1.9968481 4286122305
-1.0964061 -0.082985848 1.9967769 4286122305
-1.0592366 -0.082433149 1.9940156 4286122305
-1.0421466 -0.082262911 1.9950525 4286122305
-1.0260055 -0.082163744 1.9977278 4286122305
-1.0073458 -0.081856988 1.9952103 4286122305
-0.97316742 -0.081478551 1.9956232 4294901760
-0.93797815 -0.08098916 1.9928733 4286122305
-0.92373842 -0.081027061 1.9983603 4286122305
-0.90742064 -0.080880977 1.9991885 4286122305
-0.88911921 -0.080550388 1.9953157 4286122305
-0.85608363 -0.080189697 1.9947602 4286122305
1.3891757 -0.087069891 1.9995967 4281584566
-1.3004965 -0.070037417 1.992149 4294901760
-0.82223946 -0.079725258 1.9912053 4294901760
-0.79311538 -0.079701349 1.9983788 4294901760
-0.62206286 -0.078164928 1.9961609 4286122305
-0.53142333 -0.077338658 1.9909743 4286122305
-0.50324225 -0.077314101 1.9951333 4286122305
-0.47482219 -0.077247769 1.9979248 4286122305
-0.46061987 -0.077212878 1.9991697 4286122305
-0.4451271 -0.076952711 1.9944607 4286122305
-0.43048868 -0.076828204 1.9932169 4286122305
-0.41582105 -0.076689966 1.991541 4286122305
1.3062512 -0.070230179 1.9967569 4281584566
-1.2635481 -0.069708697 1.9955605 4294901760
-1.2427715 -0.069409654 1.993199 4286122305
-1.2246928 -0.069255695 1.9949123 4286122305
-1.1686964 -0.068666384 1.9956599 4294901760
-1.1513088 -0.068535648 1.9976054 4286122305
-1.1493237 -0.068417482 1.9941348 4286122305
-1.1146995 -0.068151467 1.997559 4286122305
-1.0964856 -0.067957103 1.9972972 4286122305
-1.0440619 -0.067484006 1.9991175 4286122305
-0.97384733 -0.066764556 1.9973921 4286122305
-0.92325002 -0.066313162 1.997655 4286122305
-0.88999242 -0.066022694 1.9976467 4286122305
-0.80777758 -0.06528075 1.9954351 4294901760
-0.79178202 -0.065152973 1.9953412 4294901760
-0.7602753 -0.064924285 1.995711 4294901760
-0.75886148 -0.064803548 1.9919709 4286122305
-0.74357289 -0.064720728 1.9929937 4286122305
-0.6964187 -0.064332925 1.9912108 4286122305
-0.60574704 -0.063777648 1.9922372 4286122305
-0.5037663 -0.063373849 1.9975528 4286122305
-0.48812333 -0.063163929 1.993174 4286122305
-0.47440007 -0.063197374 1.9964584 4286122305
-0.45976451 -0.063107625 1.9957513 4286122305
-0.44440526 -0.062909827 1.9915228 4286122305
-1.3243275 -0.054887891 1.9985675 4294901760
-1.2828834 -0.054452498 1.9956299 4294901760
-1.2620269 -0.054221049 1.9934498 4286122305
-1.2412664 -0.053988066 1.9910752 4286122305
-1.2026117 -0.053632203 1.9900349 4286122305
-1.1892359 -0.053716246 1.9991552 4286122305
-1.1670904 -0.053401206 1.9932003 4294901760
-1.150383 -0.053329967 1.9962903 4286122305
-1.1488942 -0.053260949 1.9936868 4286122305
-1.1300985 -0.053088788 1.9928538 4286122305
-1.1286277 -0.053019695 1.99024 4286122305
-1.1113744 -0.052915387 1.9918548 4286122305
-1.0798128 -0.052842181 1.9999362 4286122305
-1.0607731 -0.052642297 1.9975988 4286122305
-1.059841 -0.05259604 1.9958299 4286122305
-1.0430493 -0.052502941 1.9974598 4286122305
-1.0225085 -0.052215684 1.9915274 4286122305
-1.007328 -0.052197725 1.9958347 4286122305
-0.98949283 -0.05203962 1.9946436 4286122305
-0.9721626 -0.05190368 1.9942006 4286122305
-0.92115086 -0.051524676 1.9933649 4286122305
-0.85645741 -0.051157773 1.9962739 4286122305
-0.83840328 -0.050943848 1.9919516 4294901760
-0.77659547 -0.050688185 1.9973825 4286122305
-0.76032025 -0.050563481 1.996106 4286122305
-0.75925982 -0.050492957 1.9933006 4286122305
-0.74500525 -0.050499059 1.997138 4286122305
1.3865248 -0.055416863 1.9964682 4281584566
-0.54807734 -0.049556401 1.9987744 4286122305
-0.53124058 -0.049300432 1.990872 4286122305
-0.50306934 -0.049284786 1.995028 4286122305
-0.48886162 -0.049263999 1.9964716 4286122305
-0.4728235 -0.049052082 1.9900306 4286122305
-0.46023858 -0.04919643 1.9980835 4286122305
-0.44583765 -0.049149614 1.9982492 4286122305
-1.2227379 -0.038549922 1.9922422 4286122305
-1.1862385 -0.038359012 1.9943069 4286122305
-1.1489445 -0.038131658 1.9940022 4286122305
-1.1319457 -0.038068857 1.9963633 4286122305
-1.1291673 -0.037975416 1.9914254 4286122305
-1.0966928 -0.037894726 1.9982023 4286122305
-1.0767123 -0.037721556 1.9943732 4286122305
-1.042788 -0.037577901 1.997178 4286122305
-0.988653 -0.037224002 1.9931568 4286122305
-0.97420788 -0.037236474 1.9986473 4286122305
-0.9555046 -0.037084062 1.9951211 4286122305
-0.87146968 -0.036644436 1.9934052 4286122305
-0.84036678 -0.036556561 1.9968642 4294901760
-0.83766961 -0.036439233 1.9904059 4294901760
-0.80674297 -0.036348827 1.993348 4294901760
-0.78966635 -0.036227144 1.9904543 4286122305
-0.74552441 -0.036177911 1.9987471 4286122305
-0.63772523 -0.035768203 1.9987487 4286122305
-0.60754383 -0.035662904 1.9986593 4286122305
-0.59160799 -0.035555694 1.9954081 4286122305
-0.57765806 -0.035565518 1.9986967 4286122305
-0.54731506 -0.03542852 1.9961704 4286122305
-0.53244221 -0.035374451 1.9956071 4286122305
-0.47353381 -0.035169575 1.9932376 4286122305
-0.45936891 -0.035153605 1.9944726 4286122305
-0.43022007 -0.035051834 1.9927329 4286122305
-0.42980117 -0.035017706 1.9907776 4286122305
1.3681247 -0.039596535 1.9997331 4281584566
1.3875326 -0.039702255 1.9981698 4281584566
-1.2413574 -0.023314713 1.9916095 4286122305
-1.2253742 -0.023302453 1.9967259 4286122305
-1.2073276 -0.023250148 1.9982837 4286122305
-1.1683478 -0.023084428 1.9957458 4286122305
-1.1469927 -0.022960955 1.9907409 4286122305
-1.1321422 -0.022966137 1.9968643 4286122305
-1.1296906 -0.022916406 1.9925069 4286122305
-1.0932814 -0.022786021 1.9920894 4286122305
-1.0569663 -0.022650296 1.990746 4286122305
-1.0078492 -0.022551563 1.997243 4286122305
-0.99133134 -0.02251338 1.9987451 4286122305
-0.9731043 -0.022434635 1.9965121 4286122305
-0.92309344 -0.02229619 1.9979616 4286122305
-0.90514314 -0.022215644 1.9951342 4286122305
-0.87229121 -0.022123812 1.9954413 4286122305
-0.82506162 -0.022028653 1.9990767 4286122305
-0.62160391 -0.021507761 1.9956123 4286122305
-0.57723475 -0.021436479 1.9973534 4286122305
-0.56132418 -0.021367669 1.9935435 4286122305
-0.54759431 -0.021380469 1.9973291 4286122305
-0.50310814 -0.021283688 1.99551 4286122305
-0.48781362 -0.02122746 1.9924837 4286122305
-0.47432858 -0.021248981 1.996739 4286122305
-0.45975459 -0.021221548 1.9962898 4286122305
-0.44464767 -0.021167025 1.9931966 4286122305
0.52024186 -0.0213317 1.9973429 4294901760
1.3843588 -0.023892598 1.993724 4281584566
-1.3645493 -0.0081624473 1.998906 4294901760
-1.2600108 -0.0079970928 1.990708 4286122305
-1.242954 -0.0079863137 1.9942693 4286122305
-1.2257391 -0.0079742363 1.9974033 4286122305
-1.130688 -0.007846714 1.994356 4286122305
-1.1153462 -0.0078449436 1.999482 4286122305
-1.0960076 -0.0078146253 1.9971709 4286122305
-1.0770743 -0.007786395 1.9952742 4286122305
-1.0064313 -0.0077041248 1.9944861 4286122305
-0.99119872 -0.0077008866 1.9985499 4286122305
-0.95497441 -0.0076479875 1.9942244 4286122305
-0.90515649 -0.0076001724 1.9952365 4294901760
-0.89025766 -0.0075977561 1.9989624 4286122305
-0.77702457 -0.0074921278 1.9989132 4286122305
-0.72971243 -0.0074503883 1.998459 4286122305
-0.60583895 -0.0073383288 1.9932088 4294901760
-0.53333706 -0.0073117237 1.9991854 4286122305
-0.51832622 -0.0072983508 1.9979366 4286122305
-0.50335872 -0.0072848597 1.9965774 4286122305
-0.4885138 -0.0072724209 1.9954311 4286122305
-0.47432074 -0.0072692409 1.9967715 4286122305
-0.45916766 -0.0072507081 1.9937872 4286122305
-0.44393423 -0.0072297044 1.990039 4286122305
-0.43065932 -0.0072402698 1.9949774 4286122305
0.51949924 -0.0072872424 1.994536 4294901760
1.3838123 -0.0081705255 1.9930116 4281584566
-1.2442167 0.0073795593 1.9963124 4286122305
-1.2252196 0.0073578008 1.9965515 4286122305
-1.2068317 0.0073391967 1.9975363 4286122305
-1.1703748 0.0073025264 1.9993135 4286122305
-1.1480027 0.007257273 1.9925855 4286122305
-1.1287268 0.007230646 1.9908718 4286122305
-1.0221446 0.0071178363 1.9912573 4286122305
-0.99090457 0.0071064872 1.9979538 4286122305
-0.97355431 0.0070879566 1.9975177 4286122305
-0.93649149 0.0070314207 1.9907726 4286122305
-0.90556717 0.0070188106 1.9961501 4294901760
-0.89012307 0.0070123374 1.9986593 4286122305
-0.88931459 0.0070059686 1.9968301 4286122305
-0.84001905 0.0069603249 1.996246 4286122305
-0.76144892 0.0069053047 1.9995104 4286122305
-0.72766864 0.006858102 1.9928199 4286122305
-0.68053031 0.006815284 1.9902807 4294901760
-0.62249941 0.0068017663 1.9985789 4294901760
-0.59238786 0.0067814919 1.9982613 4294901760
-0.54786557 0.0067551271 1.9983939 4286122305
-0.51658124 0.0067143394 1.99116 4286122305
-0.50360155 0.0067278109 1.9975494 4286122305
-0.48843521 0.0067120055 1.9951092 4286122305
-0.44490701 0.0066882782 1.9944348 4286122305
-0.43149725 0.0066964095 1.99889 4286122305
1.345861 0.0075057205 1.9970223 4281584566
1.3852313 0.0075498484 1.9950725 4281584566
-1.3645298 0.02323143 1.9988014 4294901760
-1.2605251 0.022770423 1.9914528 4286122305
-1.2599933 0.022760816 1.990606 4286122305
-1.2429366 0.022730134 1.9941672 4286122305
-1.2243352 0.022670085 1.9950243 4286122305
-1.2042435 0.022580568 1.9931446 4286122305
-1.1847495 0.0225001 1.9919423 4286122305
-1.1663396 0.022438399 1.9922932 4286122305
-1.128711 0.022294082 1.9907702 4286122305
-1.1124251 0.022269612 1.9941331 4286122305
-1.0954822 0.022231139 1.996135 4286122305
-1.0775315 0.022170858 1.9960564 4286122305
-1.0613174 0.022145115 1.999009 4286122305
-1.0072532 0.021945203 1.9960574 4286122305
-0.92351103 0.021719357 1.9988769 4286122305
-0.88970625 0.02161116 1.9976467 4286122305
-0.8710981 0.021512225 1.9926952 4286122305
-0.82316738 0.021399792 1.9944559 4286122305
-0.80900341 0.021407608 1.9991215 4286122305
-0.79269385 0.021357898 1.9982885 4286122305
-0.63653785 0.020967683 1.9951376 4294901760
-0.62249029 0.020971715 1.998484 4294901760
-0.56148618 0.02081145 1.9941273 4286122305
-0.54811996 0.020837892 1.9992648 4286122305
-0.48949009 0.02073996 1.9993881 4286122305
0.52049261 0.020780435 1.9983169 4294901760
0.57971251 0.020890584 1.9987284 4281584566
0.72992289 0.021153087 1.9929663 4281584566
1.3676051 0.023246348 1.9991323 4281584566
1.3837926 0.023254428 1.9929073 4281584566
-1.3232896 0.03864079 1.9972333 4294901760
-1.2455306 0.038167797 1.9982089 4286122305
-1.2042089 0.037836581 1.992936 4286122305
-1.1887816 0.03783115 1.998623 4286122305
-1.1663061 0.037598368 1.9920861 4286122305
-1.1514277 0.037607584 1.9983526 4286122305
-1.1293323 0.037378184 1.991726 4286122305
-1.0746676 0.0370524 1.9905642 4286122305
-0.97351259 0.036619354 1.9972171 4286122305
-0.95665044 0.036539286 1.9975394 4286122305
