ply
format ascii 1.0
comment PCL generated
element vertex 1426
property float x
property float y
property float z
element camera 0
property float view_px
property float view_py
property float view_pz
property float x_axisx
property float x_axisy
property float x_axisz
property float y_axisx
property float y_axisy
property float y_axisz
property float z_axisx
property float z_axisy
property float z_axisz
property float focal
property float scalex
property float scaley
property float centerx
property float centery
property int viewportx
property int viewporty
property float k1
property float k2
end_header
0.035134736 0.073204607 1.2479932
0.026398972 0.072919682 1.2432131
0.017786575 0.072864875 1.2423656
0.0092234435 0.073098041 1.2464509
0.00060101342 0.072809555 1.2414926
-0.008016672 0.073098205 1.2464591
-0.01659687 0.072923034 1.2433803
-0.025095396 0.072631039 1.238247
-0.033658512 0.072627023 1.2380464
-0.042287234 0.072737485 1.2397832
-0.050739039 0.072557695 1.2364728
-0.059525453 0.072839238 1.2410836
-0.068106852 0.072830543 1.2406483
-0.07662411 0.072762892 1.2391577
-0.08525943 0.072809681 1.239602
-0.09375532 0.072739735 1.2379953
-0.10239565 0.072784185 1.2383215
0.035139252 0.064580292 1.2484633
0.026590804 0.064788066 1.2526677
-0.0080303894 0.064588457 1.2489258
-0.01665166 0.064535961 1.247843
-0.025058653 0.063972272 1.2367164
-0.033743244 0.064223796 1.2415079
-0.042191815 0.06401518 1.2372559
-0.050866857 0.064162597 1.2399325
-0.059485838 0.064206958 1.2405537
-0.068061531 0.064199284 1.2401186
-0.07663393 0.064190589 1.239625
-0.08493197 0.063976973 1.2350874
-0.093767293 0.064170137 1.2384622
-0.10200235 0.063954547 1.2338117
0.035032172 0.055776078 1.2448801
0.026489096 0.05591188 1.2480861
0.0092183687 0.055827208 1.2463318
0.0006016359 0.055695117 1.2433683
-0.0080249496 0.055915747 1.2483381
-0.016377071 0.054986224 1.2272762
-0.025101442 0.055514459 1.2391213
-0.033881061 0.055864967 1.2469101
-0.042331051 0.055640016 1.2416574
-0.050953448 0.055679336 1.2423375
-0.059256244 0.055408455 1.2359729
-0.068177298 0.055711105 1.2425225
-0.076703399 0.05565938 1.2410309
-0.085415252 0.05573928 1.2424717
-0.093852289 0.055641629 1.2398671
-0.10217632 0.055498976 1.2362103
0.034980025 0.04709845 1.2432333
0.026386943 0.047101159 1.2434428
0.0091973599 0.047104303 1.2436856
0.00060026132 0.046992585 1.2407211
-0.0080130342 0.047216564 1.2466916
-0.016668307 0.04732763 1.2496052
-0.025163829 0.047064099 1.2424684
-0.033643063 0.046911974 1.2382715
-0.04233513 0.047058132 1.2420077
-0.050756145 0.046904515 1.2376957
-0.059356473 0.046937026 1.2383183
-0.06780535 0.046856686 1.2358885
-0.076467246 0.046925053 1.2373916
-0.085152693 0.046992648 1.2388346
-0.093786798 0.047022134 1.239221
-0.10210484 0.046901479 1.235564
0.035093889 0.038629182 1.247522
0.02634717 0.038448028 1.2417361
0.00059075817 0.037809085 1.2210218
-0.02514586 0.038448293 1.2417608
-0.033753 0.03847672 1.2425591
-0.042237639 0.038382296 1.2393026
-0.050881553 0.038440045 1.2409827
-0.059455756 0.038436063 1.2406062
-0.067973018 0.038400918 1.2391732
-0.076351605 0.038304076 1.2356871
-0.08515951 0.038420428 1.2391261
-0.093496293 0.038322385 1.2355255
-0.10243817 0.038468003 1.2398396
0.18350522 0.030308438 1.2520257
0.17485289 0.030318314 1.2532482
0.15690917 0.030218283 1.2505552
0.14815101 0.030203046 1.2506031
0.13950884 0.030211028 1.2515844
0.13003899 0.030028937 1.2445512
0.12162998 0.030083349 1.2473993
0.11283179 0.030042464 1.2462082
0.10438442 0.030095953 1.2489413
0.095829397 0.03012526 1.2506208
0.086638317 0.029940579 1.2432663
0.078108579 0.029968919 1.2448261
0.069451377 0.02994932 1.2443315
0.061093774 0.030071648 1.2497689
0.052209638 0.029932408 1.244163
0.043577712 0.029911362 1.2434909
0.17376912 0.021472245 1.2455013
0.16542175 0.021512663 1.2486402
0.15667062 0.021502137 1.248747
0.14827426 0.021541923 1.2517726
0.1395155 0.021530734 1.251761
0.13066104 0.021502307 1.2506942
0.12182749 0.021473531 1.2495656
0.11301531 0.021444401 1.2483757
0.10430715 0.021431822 1.2481207
0.095607616 0.021418897 1.247806
0.086917087 0.021405628 1.2474314
0.078236014 0.021392014 1.2469971
0.069454715 0.021344226 1.2445066
0.060807377 0.021329915 1.2439523
0.052253552 0.021349091 1.245337
0.043510634 0.021283338 1.2416672
0.17459363 0.012874893 1.2515619
0.16581622 0.012868826 1.251732
0.1565526 0.012822265 1.2478719
0.14816274 0.012846004 1.2508968
0.13897277 0.012799012 1.2469085
0.13066515 0.012832438 1.2508112
0.12183134 0.012815264 1.2496825
0.11292982 0.012787796 1.2474964
0.10439272 0.012800461 1.249234
0.095610656 0.012782663 1.2479225
0.087263145 0.012825196 1.2525358
0.078300357 0.012776711 1.2481116
0.069456927 0.012738101 1.2446228
0.060905762 0.012749748 1.246066
0.052296631 0.012751101 1.2464525
0.043684967 0.012752247 1.2467799
0.18337922 0.0041776258 1.2513891
0.17445982 0.0041724583 1.2506293
0.16517004 0.0041574263 1.2468324
0.15655504 0.0041586547 1.2479297
0.14804883 0.0041630864 1.2499616
0.13908437 0.0041543818 1.2479602
0.13025662 0.0041488768 1.2468903
0.12221669 0.0041694655 1.253722
0.11310972 0.0041540172 1.2495462
0.10439438 0.0041515841 1.2492919
0.095687628 0.0041490835 1.2489775
0.086921237 0.0041432427 1.2476057
0.078363441 0.0041471543 1.2491674
0.069458023 0.0041313586 1.2446804
0.060906727 0.004135137 1.2461238
0.052256048 0.0041323006 1.2455108
0.043720249 0.0041392217 1.2478369
0.18323588 -0.0045221699 1.2503982
0.17432328 -0.0045165713 1.2496376
0.148165 -0.0045134951 1.2509537
0.1394126 -0.0045111473 1.2509409
0.13046187 -0.0045016445 1.2488786
0.12192908 -0.0045062369 1.2507347
0.11257529 -0.0044788695 1.2435687
0.10414755 -0.0044868616 1.2463009
0.095763057 -0.0044983295 1.2499735
0.087058522 -0.0044955486 1.2495999
0.078116015 -0.0044785114 1.2451739
0.069458 -0.0044755833 1.2446791
0.060954928 -0.004483223 1.2471213
0.052545886 -0.0045014345 1.2525038
0.043651052 -0.0044770064 1.245837
0.17459346 -0.013222799 1.2515583
0.15704437 -0.013210126 1.2518376
0.14816259 -0.01319313 1.2508932
0.13908206 -0.013155216 1.2478989
0.12211878 -0.013192621 1.2526648
0.11328597 -0.013174779 1.2514768
0.10439264 -0.013146355 1.2492304
0.095610574 -0.013128076 1.2479192
0.086919777 -0.013119943 1.2475443
0.077991031 -0.013070139 1.2431179
0.069566928 -0.01310304 1.246616
0.061002154 -0.013115007 1.2480602
0.052296575 -0.013095658 1.2464488
0.043823276 -0.013138317 1.2507737
0.18337034 -0.021931309 1.2512072
0.16581073 -0.021910988 1.2516085
0.15691635 -0.021883164 1.2507257
0.13962469 -0.021895075 1.2527487
0.13066082 -0.021849029 1.2506881
0.122019 -0.021854125 1.2515502
0.11301511 -0.021790188 1.2483696
0.10422473 -0.021760235 1.2471185
0.086779647 -0.021716431 1.2454305
0.078297742 -0.021754142 1.2479892
0.061048388 -0.021759799 1.2489399
0.052460495 -0.021779293 1.250326
0.043718088 -0.021729676 1.2476568
0.14894921 0.17870417 1.2493824
0.14025985 0.1787506 1.2503691
0.13146164 0.17865527 1.2503113
0.12228865 0.17800087 1.2462502
0.11388775 0.17845613 1.2500137
0.10503091 0.17821321 1.2487872
0.096045814 0.17768914 1.2455244
0.087315738 0.17757963 1.2451624
0.078471825 0.17718889 1.2427634
0.069939181 0.17749132 1.2452468
0.061279949 0.17751256 1.2456944
0.052535284 0.17725255 1.244104
0.043884244 0.17726816 1.2444329
0.14841658 0.16937058 1.2456499
0.14008564 0.16981138 1.2495886
0.13099124 0.16932382 1.2465709
0.12270937 0.16989191 1.2513814
0.11374602 0.1695312 1.2492273
0.10481795 0.1691677 1.2470101
0.096151344 0.16919863 1.2476957
0.087274857 0.16882965 1.2453555
0.078619942 0.16885522 1.2459215
0.069906428 0.16874568 1.2454387
0.061299339 0.16889837 1.2468759
0.052469343 0.16838603 1.2433032
0.043829173 0.16840093 1.2436318
0.14880848 0.16110025 1.2497318
0.14034572 0.16139324 1.2526896
0.13113275 0.16080517 1.2486833
0.1222681 0.16059099 1.2475735
0.11395773 0.16112772 1.2523304
0.10476736 0.16040607 1.2471461
0.096180215 0.16056105 1.2488205
0.087438032 0.16046228 1.2484573
0.078705259 0.16036092 1.2480342
0.069817685 0.15987995 1.2445793
0.061221614 0.16002488 1.2460171
0.052567746 0.16004157 1.2464052
0.043911375 0.16005573 1.246734
0.1580178 0.15285842 1.2536976
0.14850278 0.15206967 1.2478429
0.13973047 0.15199062 1.2478396
0.13127232 0.15226547 1.2507385
0.12258969 0.15230051 1.2516046
0.11372357 0.15209553 1.2504333
0.095605366 0.15096496 1.2419659
0.08732596 0.15158471 1.2475414
0.078666009 0.15160775 1.2481077
0.069947422 0.15150945 1.2476233
0.061239101 0.15140876 1.2470794
0.052500162 0.15118669 1.2454835
0.043785915 0.15096216 1.2438276
0.13987707 0.14344583 1.2498345
0.13100025 0.14325711 1.2487824
0.12262258 0.14362621 1.2526139
0.11393188 0.14365707 1.2534207
0.096007615 0.14292736 1.2479206
0.087075472 0.1425029 1.2445809
0.078687236 0.14297311 1.2491126
0.069691725 0.14231969 1.2436669
0.061063174 0.14233685 1.2441127
0.052596986 0.14280044 1.2484711
0.043763243 0.14225219 1.2438351
0.16667078 0.13529441 1.2535702
0.14002159 0.13488083 1.2517719
0.12265362 0.13494517 1.253564
0.096031979 0.13428867 1.2488662
0.0873717 0.13431126 1.2494919
0.078522056 0.13401563 1.2470808
0.069709465 0.13371782 1.2446084
0.061078731 0.13373396 1.2450545
0.052403752 0.13364257 1.2444482
0.04387797 0.13397068 1.2477578
0.14849907 0.12596761 1.2497008
0.13055207 0.1254409 1.2456696
0.095828861 0.125348 1.2467762
0.087323993 0.12556623 1.2493861
0.078417316 0.12519108 1.2459793
0.06978105 0.12520818 1.2464848
0.061093327 0.12512471 1.2459375
0.052416284 0.12503923 1.2453306
0.043612231 0.12455726 1.2406861
0.16622858 0.11750191 1.2513479
0.15706676 0.11716993 1.2484996
0.14853188 0.11729411 1.2505305
0.13129848 0.11744553 1.2534294
0.11347956 0.1170394 1.2501434
0.10473594 0.11697108 1.2498957
0.096000895 0.11690086 1.2495877
0.087206341 0.11673702 1.2482262
0.078434817 0.11657129 1.2468041
0.069796637 0.11658723 1.2473097
0.061299592 0.11687677 1.2507402
0.052428007 0.11642995 1.2461543
0.043691065 0.11616485 1.243497
0.15722182 0.1085849 1.2502582
0.14879453 0.10878479 1.2532804
0.13978671 0.10855871 1.2512947
0.13112049 0.10858554 1.2522187
0.12206513 0.10827102 1.2491165
0.11341405 0.10829441 1.2499199
0.10467543 0.10823112 1.249671
0.095945418 0.10816614 1.2493622
0.086881548 0.10767448 1.2440232
0.078574605 0.10811593 1.2495588
0.06975615 0.10787572 1.2470808
0.061167832 0.10797381 1.2485224
0.052314829 0.10756003 1.2439326
0.043769237 0.10773971 1.2462518
0.16629408 0.10010785 1.2528325
0.1572516 0.099903092 1.2509692
0.14859061 0.099930912 1.2520126
0.13981329 0.099879093 1.2520057
0.13104291 0.099825688 1.2519383
0.1222799 0.099770702 1.2518104
0.11361364 0.099792279 1.2526151
0.10436671 0.099265136 1.2464057
0.096114524 0.099674359 1.2520587
0.087309688 0.099534817 1.2506958
0.078466102 0.09931545 1.2482768
0.069824509 0.099329077 1.2487828
0.061083227 0.099184684 1.2472382
0.052366242 0.099038668 1.2456334
0.043743093 0.099047512 1.2459612
0.18393619 0.091487996 1.2530725
0.1660637 0.091261037 1.2515078
0.15641885 0.090717763 1.2446922
0.1487326 0.09131331 1.2536554
0.139291 0.090838216 1.2477002
0.13106582 0.091145992 1.2525897
0.12239706 0.091167144 1.2534543
0.11345556 0.090972818 1.2512794
0.10454939 0.090776972 1.2490417
0.0959052 0.090793766 1.2497256
0.087119237 0.090666324 1.2483602
0.078479886 0.090680212 1.2489251
0.069836795 0.090692684 1.2494311
0.060901251 0.090275154 1.2439002
0.052416835 0.090498954 1.2472761
0.043716241 0.090364181 1.2456106
0.17501812 0.08266928 1.2529151
0.1308815 0.082332909 1.2511967
0.12232074 0.082416564 1.2530533
0.11338463 0.082240753 1.2508764
0.10448386 0.082063586 1.248637
0.095694289 0.081949614 1.2473302
0.087270372 0.082157247 1.2509402
0.078368835 0.081911452 1.2475222
0.069847971 0.082051918 1.2500203
0.060911015 0.081674218 1.244487
0.052342489 0.081747442 1.2458702
0.043723252 0.081754766 1.2461979
0.17504297 0.073959388 1.2534494
0.13922365 0.073467143 1.2478292
0.13079764 0.073600821 1.2507358
0.12205087 0.073560186 1.2506047
0.11340089 0.07357613 1.251408
0.10449886 0.073417634 1.2491674
0.095934317 0.07348901 1.2508465
0.087008461 0.073270313 1.2474875
0.07850375 0.073397145 1.2500446
0.069858037 0.073407248 1.2505506
0.060775205 0.072895892 1.2420232
0.052350044 0.073134862 1.2463986
0.043591291 0.07291013 1.2427355
0.15734619 0.065132819 1.2532212
0.13091686 0.064980671 1.2522017
0.12206642 0.064893909 1.2510772
0.11305927 0.064704187 1.2479014
0.10459445 0.064819127 1.2506342
0.095871136 0.064780176 1.2503225
0.087225482 0.064791158 1.2509471
0.078266531 0.064546183 1.2465287
0.069536917 0.064453088 1.2450389
0.060927615 0.064460933 1.2454841
0.052315377 0.064467743 1.2458704
0.04359689 0.064320505 1.2432036
0.15736362 0.05643148 1.2536359
0.14823194 0.056270853 1.2507108
0.1398038 0.056373931 1.2536788
0.1303158 0.056034952 1.246653
0.12179256 0.056092128 1.248507
0.11351706 0.056280866 1.2532887
0.10435943 0.056027293 1.24806
0.095730998 0.05603769 1.2487425
0.08723525 0.05613552 1.2513593
0.078646265 0.056188326 1.2529223
0.069874838 0.056107704 1.2514343
0.061223697 0.056114536 1.2518815
0.052321251 0.055855349 1.2462809
0.04356721 0.055683583 1.2426146
0.17469159 0.047698576 1.2517257
0.13948891 0.047566868 1.2510537
0.13063608 0.04750406 1.2499877
0.12170838 0.047403153 1.2478656
0.11334984 0.047525447 1.2516525
0.10453392 0.047460333 1.2504044
0.095815629 0.047431797 1.2500918
0.086969055 0.047327779 1.2477251
0.078344665 0.047335062 1.2482892
0.069551408 0.047229487 1.245801
0.060940325 0.04723525 1.2462462
0.0521193 0.047053378 1.2416404
0.04370974 0.047244489 1.2469603
0.15702218 0.038929712 1.2513114
0.14814162 0.038879611 1.2503675
0.13960941 0.038920388 1.2523422
0.13074911 0.038869042 1.2512766
0.1218139 0.038786545 1.2491542
0.11309174 0.038764454 1.2489605
0.10437776 0.038741734 1.2487065
0.095823281 0.03877946 1.2503858
0.086907379 0.038663886 1.2470216
0.078412764 0.038730923 1.2495803
0.069501959 0.038583521 1.2450957
0.06075234 0.038496565 1.2425456
0.052164894 0.038500644 1.2429309
0.043851573 0.038748566 1.2512487
0.018317711 0.030795034 1.2811049
0.0093885036 0.030534627 1.270203
-0.0081982091 0.030677164 1.2762097
0.01816323 0.021760818 1.2702875
0.0092721423 0.021490619 1.2543843
-0.00820495 0.021879869 1.2773888
-0.025648462 0.021709295 1.2671598
0.018079065 0.012926128 1.2644069
0.0093381498 0.012916358 1.2635007
-0.0081925197 0.013037572 1.275508
-0.025629289 0.012945876 1.2662784
0.0096522514 0.0043300129 1.3065577
0.00061616825 0.0042252406 1.2745928
-0.0081989961 0.0042317617 1.2765669
-0.017396627 0.0043266476 1.3054783
0.018008722 -0.0045239069 1.2594646
0.0093090897 -0.0045240219 1.259558
-0.0083830282 -0.004687252 1.3055651
-0.017488807 -0.0047119809 1.3124765
-0.025389785 -0.0045060092 1.254338
0.0093454411 -0.013275753 1.264497
0.00060660508 -0.013172157 1.2545315
-0.0082178963 -0.01343136 1.2795043
-0.01676422 -0.013202876 1.257421
0.017993717 -0.021905378 1.2582846
0.0093013309 -0.021905934 1.2583777
-0.0080716778 -0.021871595 1.2563863
-0.016737336 -0.021853892 1.2553018
-0.027906038 -0.033525307 1.3799182
-0.037749942 -0.033811614 1.3916876
-0.046477735 -0.033184882 1.3654196
-0.054808252 -0.032533702 1.3381001
-0.064847656 -0.032938462 1.3546708
-0.073222876 -0.032502428 1.3362279
-0.082384452 -0.032474019 1.334699
-0.090174466 -0.03196514 1.3131597
-0.099238843 -0.03195978 1.3125135
0.040510409 -0.035036009 1.4426166
0.031019541 -0.035566363 1.4648479
0.020873951 -0.035495788 1.4620262
0.010622273 -0.034944307 1.4391415
0.00069730025 -0.035064708 1.4441787
-0.0091436468 -0.034608144 1.4251552
-0.01883023 -0.034343172 1.4140635
0.017972399 0.064943798 1.2558153
0.0092757139 0.064843401 1.2539109
0.00060681999 0.064844005 1.2539448
0.017946182 0.056179404 1.2542309
0.017947912 0.047514327 1.2545847
0.018034087 0.039030343 1.2608758
0.0094536021 0.0395815 1.2789603
-0.0084197558 0.040559668 1.3109534
-0.01702516 0.039519552 1.2768838
0.16619235 0.030327735 1.2544116
0.18465996 0.021735037 1.2601191
0.18394944 0.012921012 1.2552893
0.16659722 -0.0045427405 1.2577381
0.15741585 -0.0045299265 1.2548753
0.1845223 -0.013311503 1.2592443
0.16620529 -0.013247591 1.2547028
0.13097297 -0.013210253 1.2537916
0.17499737 -0.021972742 1.2544099
0.14862263 -0.021940749 1.254746
0.096286595 -0.021918878 1.2567731
0.070170052 -0.021911815 1.257479
0.18208009 -0.037546657 1.5405325
0.16883267 -0.036981367 1.5178895
0.15836598 -0.036990564 1.5190057
0.14396201 -0.036016058 1.4792508
0.13411549 -0.036119826 1.4841815
0.12560651 -0.036630865 1.5059842
0.11348592 -0.036085825 1.483878
0.10229067 -0.035755999 1.4706545
0.091157384 -0.03537748 1.455353
0.08034768 -0.035046302 1.4419661
0.069049791 -0.034378372 1.414521
0.059289485 -0.034382015 1.414959
0.050460108 -0.035033427 1.4423063
0.18620381 0.18098979 1.2624837
0.17606267 0.17965941 1.2539148
0.16721201 0.17957538 1.2541044
0.15848969 0.17962752 1.2552154
0.18554759 0.1715457 1.2587839
0.17707029 0.17186499 1.2619838
0.1671349 0.1707283 1.2543172
0.15841664 0.17077792 1.2554277
0.1853168 0.16253702 1.257961
0.17644213 0.16246393 1.2582128
0.16718453 0.16201212 1.2554522
0.15846379 0.16205928 1.2565631
0.18479717 0.15331066 1.2551097
0.17608324 0.15336001 1.2563406
0.16710223 0.1531698 1.2555432
0.10528954 0.15248232 1.2541478
0.18470335 0.14446662 1.2551425
0.17681117 0.14518431 1.2622787
0.16701733 0.14433382 1.2555732
0.1581827 0.14426406 1.2556968
0.14912228 0.14396812 1.2537854
0.10523579 0.1436857 1.2541684
0.18489258 0.13583948 1.2570822
0.1761743 0.13588335 1.258314
0.157977 0.13533397 1.2546775
0.14915988 0.13526627 1.254738
0.1315456 0.13512452 1.2546761
0.11396075 0.1349742 1.2543712
0.10526247 0.13500111 1.2551187
0.1850791 0.12719248 1.2589641
0.17703345 0.12772523 1.2651258
0.16696915 0.126781 1.2564367
0.15801433 0.12662137 1.2555711
0.14027326 0.12639436 1.2546408
0.12268275 0.12625776 1.2544551
0.11398784 0.12628496 1.2552624
0.10528754 0.12631018 1.2560104
0.18497665 0.11834295 1.2588165
0.17557296 0.11792348 1.2551165
0.14019504 0.11759985 1.2544836
0.12290141 0.1177478 1.257269
0.18444206 0.10924716 1.2556496
0.17574519 0.10928255 1.2568781
0.16691056 0.10923149 1.2570595
0.18476309 0.10066829 1.2583383
0.17564204 0.10046693 1.2566063
0.17539971 0.091588907 1.2552857
0.18496731 0.083222151 1.2605799
0.16686784 0.082952678 1.2580374
0.15816408 0.082977101 1.259146
0.14875616 0.082613289 1.2542485
0.13996921 0.082570545 1.2542419
0.18413441 0.074108236 1.2551898
0.16663222 0.074097641 1.2565937
0.15744917 0.073888734 1.2537379
0.14866126 0.07385166 1.253791
0.18444404 0.065478973 1.2576423
0.17520151 0.065296859 1.2549136
0.16678299 0.065418839 1.2580597
0.14868011 0.065151006 1.2542652
0.140007 0.065168194 1.2552499
0.18460761 0.05677541 1.2590479
0.17549382 0.05666171 1.2573086
0.16667175 0.056635216 1.2574856
0.18405212 0.047869306 1.2554493
0.16681731 0.047937043 1.2588331
0.15799336 0.04791389 1.2589496
0.14871077 0.047740802 1.2550353
0.1846396 0.039258949 1.2597032
0.17525131 0.039119404 1.255982
0.16631159 0.039070603 1.2551659
0.20094052 0.030310951 1.2503915
0.19244899 0.030345403 1.2527211
0.19245806 0.021626489 1.2528986
0.19186695 -0.0045206267 1.2491188
0.21186133 0.030630579 1.2627988
0.21203475 0.021846564 1.2639642
0.20220391 0.021736728 1.2584684
0.21204135 0.013037884 1.2640831
0.20221026 0.012972336 1.2585869
0.1932141 0.01295684 1.2579592
0.21106371 0.0042090239 1.2582228
0.20174311 0.0041975426 1.2556826
0.19321708 0.0042023016 1.2580179
0.21122712 -0.0045632515 1.2592081
0.2018998 -0.0045508146 1.256669
0.21106026 -0.013328249 1.2581606
0.20189655 -0.013302218 1.2566081
0.19306394 -0.013296629 1.2569672
0.21105352 -0.022096146 1.2580397
0.20189013 -0.02205299 1.2564875
0.19335778 -0.02207798 1.2588239
0.25888491 0.025609709 1.4831873
0.25906315 0.015293748 1.4843121
0.25906712 0.0049602315 1.4843811
0.25974795 -0.0053876406 1.4883213
0.25991401 -0.015758615 1.4892346
0.26041636 -0.026176644 1.4920475
0.23429824 -0.037368789 1.5284756
0.22504766 -0.037596922 1.5389426
0.21143368 -0.037082508 1.5186541
0.20394519 -0.037644811 1.5428597
0.19220097 -0.037440337 1.5352855
0.20295759 0.18017218 1.2549335
0.19467674 0.18065159 1.2592255
0.21989349 0.17796119 1.3036063
0.20364572 0.17195576 1.2600484
0.19503638 0.17214815 1.2623879
0.21783862 0.16724797 1.2920671
0.20386215 0.16330184 1.2621713
0.19419639 0.16260763 1.2576478
0.21773639 0.15812351 1.2921979
0.20313735 0.15391599 1.2583526
0.19395155 0.15361458 1.2567639
0.21599938 0.14788827 1.2824632
0.20397325 0.14570783 1.2642795
0.19370364 0.14464143 1.2558174
0.21572684 0.1387392 1.2814798
0.20292892 0.1361656 1.2583691
0.19420125 0.13621368 1.2597238
0.2152876 0.12951247 1.2794508
0.20297647 0.12739921 1.2592682
0.19364774 0.1270512 1.2566879
0.21549788 0.12068601 1.2812864
0.20270783 0.11844395 1.2581406
0.19384 0.11839437 1.2585093
0.21439862 0.11116309 1.2751987
0.20321873 0.1099337 1.2618709
0.19432898 0.10988791 1.2622422
0.2134589 0.1018076 1.2700258
0.20294374 0.10098807 1.2606215
0.19346642 0.10063414 1.2570482
0.21398567 0.093168691 1.2736422
0.20313534 0.092278235 1.2622657
0.19379961 0.092026301 1.2596772
0.21140519 0.083262235 1.2584962
0.20332383 0.083550528 1.2638507
0.1944297 0.083515823 1.2642214
0.21225198 0.074777626 1.2639587
0.20335256 0.074747749 1.2643908
0.19355763 0.074371062 1.2588391
0.21195176 0.06586621 1.2624681
0.2022813 0.065585814 1.2579663
0.19463162 0.065964885 1.2662283
0.21262874 0.057242833 1.2668298
0.20230356 0.056823909 1.2583839
0.19300343 0.05666801 1.2557834
0.21166803 0.048190333 1.2612749
0.2023226 0.048059314 1.2587416
0.19362156 0.048076428 1.2600921
0.21266538 0.039582115 1.2674904
0.20233847 0.039292458 1.2590396
0.19348681 0.039276011 1.259402
0.27132487 0.16753532 1.5494398
0.26821786 0.14421929 1.5329357
0.26844221 0.13363223 1.5348651
0.27087304 0.12403761 1.5494934
0.26632765 0.11133286 1.5237654
0.26449823 0.10001772 1.5136725
0.26181352 0.088559225 1.498579
0.2618463 0.078125693 1.4991474
0.2615346 0.067600526 1.4976758
0.26036796 0.056913335 1.4912087
0.26021811 0.046500914 1.4905764
0.25938341 0.036005385 1.4859327
0.32890409 0.031288192 1.8140054
0.32979897 0.018722802 1.8190966
0.32945016 0.0060658641 1.8172127
0.32980394 -0.00657833 1.8191794
0.32909092 -0.019187467 1.8151549
0.27295598 0.17943022 1.5580512
0.27223784 0.15723993 1.5554488
0.31919643 0.17729059 1.7543261
0.31997257 0.1654481 1.7594141
0.32198119 0.15413602 1.7712879
0.32734388 0.14414686 1.8017328
0.32227334 0.1295522 1.7742047
0.32621333 0.11862309 1.7966535
0.32590547 0.10600995 1.795455
0.32615864 0.08107055 1.7977144
0.32848883 0.069049478 1.811011
0.32833752 0.05642321 1.8104551
0.34843013 0.17350717 1.8443021
0.34813356 0.16049899 1.8434832
-0.11303692 0.32765844 1.2344285
-0.12194206 0.32809681 1.235553
-0.13086857 0.32853007 1.2366153
-0.13970871 0.32870579 1.2366536
-0.14821394 0.32811925 1.233748
-0.15753064 0.32929438 1.2375063
-0.16627021 0.32920274 1.2364006
-0.17500232 0.32910621 1.2352352
-0.18386738 0.32925704 1.2349675
-0.19406475 0.33167115 1.2432456
-0.20299976 0.33181125 1.2428453
-0.21113504 0.33068708 1.2376112
-0.11327489 0.31958762 1.238567
-0.12210452 0.31976831 1.2387285
-0.13053946 0.31896043 1.2349731
-0.13925025 0.31888568 1.2340519
-0.14863919 0.32028106 1.2388469
-0.15846427 0.32240808 1.2464582
-0.16649067 0.32084414 1.2395805
-0.17510003 0.32050425 1.2374535
-0.18411081 0.32089639 1.2381459
-0.19299251 0.32103813 1.2378168
-0.20172469 0.32092965 1.2364687
-0.21076968 0.32130709 1.2369729
-0.11316252 0.31051868 1.2387855
-0.12217142 0.31117317 1.2408823
-0.13061093 0.31038684 1.2371215
-0.13921899 0.31007469 1.235235
-0.14860626 0.31143239 1.2400401
-0.1573423 0.31134996 1.2389957
-0.16556101 0.31030664 1.2340412
-0.17479265 0.31117126 1.2367277
-0.18392904 0.31179181 1.2383866
-0.19339256 0.31288505 1.2418996
-0.20198841 0.31254029 1.23959
-0.21072289 0.31242993 1.2381806
-0.11322299 0.30192798 1.2408757
-0.12195456 0.30186599 1.2400731
-0.13068059 0.30179951 1.2392108
-0.13854082 0.29986739 1.2305562
-0.1481144 0.30165297 1.2373077
-0.15670048 0.30134037 1.2353016
-0.16564894 0.30172086 1.2361306
-0.17421375 0.30139944 1.2340066
-0.18374448 0.30269992 1.2385616
-0.19231327 0.30236942 1.2363157
-0.20101446 0.30226687 1.2349727
-0.21083412 0.3037844 1.2402852
-0.22207963 0.30715224 1.2531875
-0.1130199 0.29264551 1.2399968
-0.12154759 0.29213306 1.2372565
-0.13014361 0.29184246 1.2354282
-0.13904284 0.29222566 1.2364467
-0.14761987 0.29192638 1.2345005
-0.15653968 0.29230055 1.2353965
-0.16535155 0.29244429 1.2352639
-0.17497569 0.29393813 1.2408595
-0.1828516 0.29249269 1.2338514
-0.19256012 0.29397687 1.239314
-0.20111784 0.29365137 1.2370074
-0.21078123 0.29489997 1.2413692
-0.11290232 0.28360924 1.2400212
-0.12160906 0.28355077 1.2392211
-0.13041109 0.28370744 1.2393318
-0.13900544 0.28342101 1.2374424
-0.14757997 0.28313038 1.2354949
-0.15661852 0.28371274 1.2373625
-0.16479598 0.28275612 1.2323946
-0.17412236 0.28376794 1.2360718
-0.18322568 0.28433684 1.2377502
-0.19176944 0.28402516 1.2355049
-0.20121846 0.28502294 1.238983
-0.20991918 0.28492165 1.2375795
-0.2199537 0.28656626 1.2438061
-0.11295788 0.2750127 1.2419275
-0.12138632 0.27431741 1.2382091
-0.1302733 0.27468207 1.239295
-0.13918124 0.27504241 1.2403185
-0.14765228 0.27454779 1.2373981
-0.15596859 0.27383667 1.233452
-0.16500431 0.27439705 1.2352641
-0.17353477 0.27410311 1.2331403
-0.18289129 0.2750797 1.2367609
-0.19289827 0.27690095 1.244176
-0.20178014 0.27701873 1.2437943
-0.21018238 0.27649567 1.2404593
-0.11239953 0.26496038 1.2369525
-0.12087896 0.26449323 1.2342081
-0.12972967 0.26484662 1.2353003
-0.13849367 0.26498979 1.2353581
-0.14783694 0.26615888 1.2402145
-0.15640613 0.26588172 1.2382048
-0.16495474 0.26560068 1.2361374
-0.17415532 0.26634493 1.2388592
-0.18283655 0.26626173 1.2376409
-0.19076946 0.26514611 1.2315264
-0.2009472 0.26711166 1.2398579
-0.20915174 0.26639971 1.2355608
-0.22049998 0.26958841 1.2495291
-0.11218907 0.25578761 1.2358034
-0.12121767 0.25653243 1.2389098
-0.12989065 0.2564753 1.2380532
-0.13823442 0.2558161 1.2342153
-0.14721827 0.25634938 1.2361621
-0.15672059 0.25767559 1.2419348
-0.16477476 0.25660646 1.2359778
-0.17342746 0.25652996 1.2348237
-0.18334451 0.25824159 1.2423379
-0.19130108 0.25716171 1.2362133
-0.20072961 0.25806841 1.2397164
-0.20908581 0.25757837 1.2363833
-0.21992798 0.26006728 1.2474779
-0.11223944 0.24722189 1.2375196
-0.12089482 0.24717048 1.2367243
-0.12954463 0.24711528 1.2358699
-0.13818847 0.24705634 1.2349564
-0.14705499 0.24737899 1.2359331
-0.15618424 0.24808292 1.238795
-0.16497621 0.24820508 1.2386725
-0.17323525 0.24755344 1.2346011
-0.18286033 0.24882282 1.2401868
-0.19049717 0.24739444 1.2321186
-0.20097339 0.2496172 1.2424175
-0.21014749 0.25010449 1.2439198
-0.22069797 0.25212511 1.253091
-0.11220057 0.23845877 1.2381985
-0.12123029 0.2391535 1.2413155
-0.1302073 0.23965818 1.2433906
-0.13824826 0.23848478 1.2366129
-0.14677483 0.2382382 1.2346643
-0.15552379 0.23835996 1.2346083
-0.16453515 0.23884977 1.2364401
-0.17317508 0.23877826 1.2352879
-0.18166558 0.23851746 1.2331043
-0.19117172 0.23955311 1.2376631
-0.20043994 0.24021323 1.2402103
-0.20862144 0.23957033 1.2359049
-0.21978255 0.24226335 1.2489734
-0.11216003 0.2296982 1.2388164
-0.12052605 0.22911197 1.2350839
-0.12955388 0.22977808 1.2381464
-0.13787456 0.22918509 1.2342994
-0.14706539 0.23002312 1.2382147
-0.15522456 0.22924411 1.2332765
-0.16434751 0.22989552 1.2360898
-0.17297746 0.22982657 1.234939
-0.18174104 0.22993325 1.2347027
-0.19095452 0.23057343 1.2373234
-0.19897328 0.22977817 1.2321045
-0.20886937 0.23112667 1.2384812
-0.22020999 0.23390137 1.2525361
-0.11176714 0.22024956 1.2354491
-0.12029152 0.22003073 1.2336766
-0.12950505 0.22101733 1.2387053
-0.13814603 0.22096428 1.2377921
-0.14769801 0.22228858 1.2446464
-0.15540846 0.22084817 1.2357891
-0.16466987 0.22164756 1.2395825
-0.17318177 0.22140852 1.2374537
-0.18181388 0.22133864 1.2362424
-0.19043769 0.22126551 1.2349724
-0.20013796 0.22239491 1.2404526
-0.20862921 0.22214261 1.2380856
-0.22012925 0.22498573 1.2531321
-0.11207381 0.21218617 1.239869
-0.12071623 0.21214168 1.2390749
-0.12904938 0.21159604 1.2352791
-0.13819973 0.21237472 1.2392703
-0.14637876 0.21165694 1.2343801
-0.1552258 0.21193129 1.2353094
-0.16370803 0.21170487 1.2332431
-0.17338365 0.21296699 1.2399119
-0.18188404 0.21273397 1.2377234
-0.19065943 0.21282919 1.2374278
-0.19974972 0.21325223 1.239019
-0.20951833 0.21433386 1.2444365
-0.21869726 0.21474969 1.2458923
-0.11141404 0.20232031 1.2334207
-0.12066697 0.20339273 1.2395103
-0.12909767 0.20302838 1.2366935
-0.13760336 0.20282027 1.2348021
-0.14677769 0.20356414 1.2387367
-0.15540518 0.20350885 1.2377058
-0.16351251 0.20281427 1.2327006
-0.17331314 0.20418429 1.2403576
-0.18195158 0.20411961 1.2391455
-0.19073012 0.20421083 1.2388507
-0.19935821 0.20414007 1.2375199
-0.20813908 0.20422505 1.2371038
-0.11180522 0.19438371 1.2387094
-0.12014323 0.19388513 1.234966
-0.12894149 0.19414635 1.2360831
-0.13776079 0.19440445 1.2371389
-0.1462563 0.19420211 1.235188
-0.15594703 0.19552089 1.2429883
-0.16459729 0.19546473 1.2418947
-0.17296991 0.19510105 1.2387841
-0.18144938 0.19488689 1.2365965
-0.19094646 0.19573539 1.2411919
-0.19927384 0.19536312 1.2379073
-0.20837477 0.19574867 1.2394431
-0.21868677 0.19719531 1.2477307
-0.11158042 0.18536332 1.2370501
-0.12009009 0.1851784 1.2352746
-0.12888458 0.18542807 1.2363943
-0.13726774 0.18509175 1.2335188
-0.1461917 0.18548129 1.2355011
-0.15466301 0.18528508 1.2334925
-0.164397 0.18654241 1.2412368
-0.17316414 0.18663152 1.241066
-0.18179499 0.18657221 1.2398551
-0.19056596 0.18665561 1.2395635
-0.19934165 0.18673611 1.2392108
-0.20893149 0.18754071 1.2436775
-0.21842362 0.18819654 1.2470969
-0.11471912 0.39464089 1.2410959
-0.1234732 0.39426333 1.2393318
-0.13200805 0.39328316 1.23561
-0.1414585 0.3949827 1.2403684
-0.15007465 0.39428943 1.2374755
-0.1594988 0.39567798 1.241154
-0.16847515 0.39586759 1.2409793
-0.17705676 0.39515731 1.2379067
-0.18630484 0.39593118 1.2394984
-0.19499728 0.39550751 1.2372507
-0.20489568 0.3974601 1.2424825
-0.2135971 0.3970246 1.2401093
-0.11392628 0.38310242 1.2342389
-0.12327378 0.38477704 1.2391413
-0.1320948 0.38469404 1.2382687
-0.14176519 0.38693979 1.2449397
-0.14971873 0.38451093 1.2363427
-0.15960334 0.38703591 1.2438294
-0.16756989 0.3848885 1.2360715
-0.1762373 0.38448563 1.2339486
-0.1854447 0.38524297 1.2355523
-0.19438995 0.38541159 1.2351995
-0.20349355 0.38586566 1.2357287
-0.21405673 0.38893384 1.2446817
-0.22475658 0.39199421 1.2535499
-0.11426038 0.3753891 1.2396907
-0.12297883 0.37502804 1.2379261
-0.13167837 0.37466156 1.2361025
-0.14142843 0.37714249 1.2437446
-0.14958759 0.37533846 1.2370378
-0.15958546 0.37809205 1.2454944
-0.16742331 0.37570751 1.236773
-0.17661764 0.37645346 1.238446
-0.18570377 0.3769086 1.2391051
-0.19436724 0.37650347 1.2368581
-0.20331617 0.37666252 1.2364453
-0.2141933 0.38023117 1.2473117
-0.11389773 0.36538884 1.2374438
-0.12221353 0.36392081 1.2318572
-0.13156061 0.3655147 1.2367228
-0.14012586 0.36487257 1.2338853
-0.14911298 0.36534002 1.2348052
-0.15775891 0.36496601 1.2328036
-0.16701998 0.36597937 1.2355033
-0.17458791 0.36336705 1.2257723
-0.18567966 0.36798823 1.2407018
-0.1944889 0.36787051 1.2394024
-0.20328952 0.36774746 1.2380428
-0.2122416 0.36789727 1.2375702
-0.22370358 0.37221116 1.2512239
-0.11344607 0.35516608 1.2341611
-0.12275746 0.35672808 1.2391021
-0.13124007 0.35583377 1.2353626
-0.14031924 0.35656768 1.2373049
-0.14931853 0.35702392 1.2382275
-0.15773539 0.3561143 1.2343131
-0.16686821 0.35683173 1.2360673
-0.17576593 0.35699973 1.23585
-0.18466914 0.3571623 1.2355708
-0.19357751 0.35731953 1.2352298
-0.20310612 0.35855803 1.2386271
-0.21269228 0.35979033 1.2419535
-0.11316637 0.34553814 1.2327173
-0.12180011 0.34520227 1.2309551
-0.13111824 0.3467212 1.2358463
-0.14029658 0.34770304 1.2387532
-0.14906675 0.34761697 1.237765
-0.15819192 0.34832224 1.2395864
-0.16696838 0.34822571 1.2384757
-0.17600529 0.34865475 1.2392147
-0.18463919 0.34828258 1.2370282
-0.19369338 0.34870109 1.2376424
-0.20230377 0.34831896 1.2353371
-0.21249804 0.35058185 1.2424816
-0.11340734 0.33750302 1.2369715
-0.12215335 0.33743435 1.2361671
-0.13049173 0.33632433 1.2314608
-0.13952121 0.33702302 1.2334195
-0.14835677 0.33719838 1.2333959
-0.15707842 0.33710974 1.2323529
-0.16706635 0.3396045 1.2408251
-0.17530428 0.3384701 1.2358274
-0.18488798 0.33991829 1.240334
-0.19321711 0.3390331 1.236177
-0.2030381 0.34072858 1.2415023
-0.21181843 0.34060901 1.2400849
-0.22142616 0.34177616 1.2433646
-0.28073835 0.25421277 1.5411878
-0.28153875 0.2440799 1.5467768
-0.28128335 0.23301069 1.5464584
-0.27698886 0.21877101 1.5236441
-0.27637246 0.20762575 1.5211984
-0.27662915 0.19715032 1.5235555
-0.28127116 0.18961127 1.550275
-0.22318305 0.32658315 1.2565105
-0.22313619 0.31756404 1.2577553
-0.22236136 0.29862246 1.2562151
-0.22157215 0.27978709 1.2543975
-0.22012632 0.20732315 1.2551106
-0.22473286 0.38293836 1.255257
-0.22384004 0.3634595 1.2537389
-0.22397354 0.35469216 1.2561935
-0.22372913 0.33635649 1.258062
-0.29417276 0.32310221 1.608851
-0.29394829 0.31151944 1.6090845
-0.29161885 0.29780439 1.597618
-0.34966347 0.30486813 1.8497741
-0.34775773 0.25155294 1.8447256
-0.34530851 0.23695888 1.8327444
-0.34813857 0.22597338 1.8489593
-0.34768313 0.21276712 1.8475264
-0.30113575 0.37720355 1.6406976
-0.29970956 0.36385876 1.634581
-0.30247137 0.35554677 1.6514708
-0.29509199 0.33549219 1.6123929
0.035484321 0.32676971 1.2340904
0.026870856 0.32805216 1.2391392
0.018104872 0.32781208 1.2383252
0.0093659991 0.32807291 1.2393867
0.0006146158 0.32908753 1.2432907
-0.0081405751 0.32807359 1.2393949
-0.01690653 0.3283194 1.2402769
-0.025625883 0.32780129 1.238197
-0.034237515 0.32651952 1.2331566
-0.043146048 0.32801494 1.2386947
-0.051933486 0.32824063 1.239337
-0.060358021 0.32643846 1.232188
-0.069220349 0.32715997 1.2346442
-0.078180186 0.32812914 1.2380044
-0.086855523 0.3278293 1.2364757
-0.095587134 0.32777727 1.235853
-0.10479695 0.32923639 1.2409557
0.035641771 0.31946245 1.2411357
0.026886044 0.31947988 1.2413491
0.018045221 0.3180145 1.2356883
0.0093785208 0.31974649 1.2425659
0.00061307254 0.31950298 1.2416308
-0.0081326179 0.31900823 1.2396668
-0.016890021 0.31924751 1.2405504
-0.025660152 0.31948197 1.2413743
-0.034309939 0.31847998 1.237294
-0.042870861 0.31722695 1.2321869
-0.052002851 0.31990957 1.2425166
-0.060672771 0.31938565 1.2401956
-0.06915237 0.3181183 1.2349131
-0.078043483 0.31881589 1.2373133
-0.086502455 0.31778544 1.2328831
-0.094977312 0.31699657 1.2293636
-0.1041317 0.31841779 1.2344811
0.035633929 0.31063691 1.2423166
0.026838649 0.31017449 1.2405887
0.018153068 0.31114551 1.2446247
0.0093620038 0.31043386 1.2418064
0.00060962711 0.30899829 1.2360154
-0.0080994014 0.30899623 1.2359898
-0.016808059 0.30898947 1.2359049
-0.025654508 0.31065586 1.2425549
-0.034408502 0.31063953 1.2423501
-0.042994395 0.30942008 1.2372339
-0.051671002 0.30915466 1.2359407
-0.060425349 0.30936381 1.2365279
-0.069458194 0.31076628 1.2419022
-0.077905513 0.30952826 1.2365532
-0.086818159 0.31020227 1.2388974
-0.095619731 0.31039232 1.2392431
-0.10410832 0.30961972 1.2356578
0.035598043 0.30157763 1.2424631
0.026832316 0.30136111 1.2417039
0.018134836 0.30207226 1.2447742
0.0093381032 0.30091411 1.240006
0.00061090116 0.30091676 1.2400399
-0.0081414776 0.30184716 1.2439042
-0.016869279 0.30137435 1.241874
-0.025509845 0.30019769 1.2368677
-0.034294162 0.30088106 1.2395803
-0.043017477 0.30086052 1.2393162
-0.051738825 0.30083549 1.2389932
-0.060223617 0.29964074 1.2337534
-0.068959624 0.29983953 1.2342838
-0.078188591 0.30189729 1.242519
-0.086395144 0.29999039 1.2341943
-0.095301814 0.30064103 1.2364839
-0.10392233 0.30035555 1.2348346
0.035589147 0.29275799 1.2435184
0.026825592 0.29254758 1.2427573
0.01808833 0.29255927 1.2429109
0.0093429908 0.29233986 1.2420303
0.00061027397 0.29188955 1.2401162
-0.0081205769 0.29234049 1.2420386
-0.016812837 0.29165468 1.2390316
-0.025523193 0.2916438 1.2388872
-0.034126054 0.2907227 1.2347885
-0.042973302 0.29183489 1.2393935
-0.051645577 0.2915841 1.2380972
-0.060161378 0.2906498 1.2338234
-0.068834804 0.29061654 1.2333832
-0.077746503 0.29148409 1.2367725
-0.086440198 0.29144186 1.2362125
-0.0951299 0.29139516 1.2355927
-0.10389586 0.29157028 1.2358847
0.035579711 0.28393844 1.2445114
0.026776928 0.28329477 1.2417984
0.018013494 0.28264666 1.2390251
0.0093187857 0.28287333 1.2400938
0.00060774258 0.28199664 1.2362254
-0.0080743646 0.28199476 1.2362
-0.016729979 0.28154895 1.2341644
-0.025496531 0.28263727 1.2388972
-0.034276385 0.28328159 1.2416192
-0.042961806 0.28304246 1.2403805
-0.051631723 0.28279904 1.2390831
-0.060285725 0.28255126 1.2377267
-0.069030695 0.28273857 1.2382597
-0.077725589 0.28270179 1.2377589
-0.086551204 0.28310001 1.2391454
-0.09517815 0.28283498 1.2375523
-0.1037872 0.28256568 1.2359008
0.035487108 0.27448022 1.2425131
0.026707044 0.27385604 1.239795
0.018022409 0.27408007 1.2409245
0.0093451301 0.27493927 1.2449257
0.00061136094 0.27494168 1.2449597
-0.0080909552 0.27387422 1.2400491
-0.016751325 0.27322876 1.2370335
-0.025330627 0.27215287 1.2320054
-0.034213524 0.2740564 1.240593
-0.042882938 0.27382448 1.2393534
-0.051657245 0.27422768 1.2409836
-0.060127895 0.27313507 1.2357217
-0.06885013 0.27331677 1.2362574
-0.077824377 0.2743462 1.2406341
-0.086325176 0.27366734 1.2371491
-0.094855383 0.27319741 1.2345818
-0.10432242 0.27527827 1.2436424
0.035504155 0.26588869 1.2443566
0.026782254 0.26590341 1.2445691
0.018031068 0.26550111 1.2427653
0.0093061347 0.26509467 1.2409017
0.00060928403 0.26530349 1.2419142
-0.0080822445 0.26488879 1.2399317
-0.016785519 0.26508936 1.2408252
-0.025422178 0.26446 1.2377461
-0.034070253 0.26423949 1.2365651
-0.04273659 0.26422131 1.236303
-0.051320627 0.26378626 1.2340266
-0.060015973 0.26396635 1.2346243
-0.068722069 0.26414233 1.2351624
-0.077378057 0.26410785 1.2346638
-0.085694402 0.2630378 1.2292255
-0.094752848 0.26423302 1.2344656
-0.10380723 0.26521748 1.2386652
0.0353828 0.25628632 1.241244
0.026753128 0.25689986 1.2443948
0.018067529 0.25730971 1.2465069
0.0093249753 0.2569164 1.2446407
0.00060861924 0.25631931 1.241735
-0.0081112217 0.25711676 1.245629
-0.016741028 0.2557126 1.2386855
-0.025354605 0.25510362 1.2356029
-0.034112755 0.25588903 1.2393183
-0.042756494 0.25567168 1.2380767
-0.051505223 0.25604954 1.2397134
-0.060043901 0.25542486 1.2363963
-0.068754025 0.25559503 1.2369353
-0.077111617 0.2545633 1.2315466
-0.086406626 0.25652239 1.2407669
-0.095166832 0.25668049 1.2411246
-0.10369386 0.25623596 1.2384926
0.035509136 0.24847679 1.2468866
0.026661146 0.24733217 1.2412132
0.017977448 0.24734206 1.2413656
0.0093146786 0.24792741 1.2444021
0.00061031792 0.24831578 1.2463983
-0.0081085796 0.2483141 1.2463726
-0.016761674 0.24734315 1.2413821
-0.025405779 0.24694762 1.2392762
-0.034234725 0.24809283 1.2449582
-0.042775787 0.24711041 1.2397918
-0.051327478 0.24651037 1.2365292
-0.059930071 0.2462927 1.2351695
-0.068623796 0.2464572 1.2357109
-0.077388369 0.24681084 1.237172
-0.086109124 0.24696758 1.2375932
-0.094765395 0.24692757 1.2369763
-0.10357885 0.24726954 1.2382559
0.035386633 0.23892505 1.2436419
0.026651971 0.23856564 1.2418891
0.017971266 0.23857521 1.2420415
0.0092752036 0.23820828 1.2401694
0.00060821074 0.23876961 1.2431507
-0.0080742761 0.2385816 1.2421428
-0.016729727 0.23820345 1.240093
-0.025436755 0.2385672 1.241914
-0.033903185 0.23706345 1.2338539
-0.042627301 0.23760611 1.236539
-0.051430307 0.23833135 1.2401454
-0.059956208 0.23774843 1.2368206
-0.068815 0.2384661 1.2403064
-0.077240489 0.23768964 1.2358847
-0.086012013 0.23802722 1.2372886
-0.094806626 0.23836105 1.2386317
-0.10386635 0.23924959 1.2428513
0.035263494 0.22942941 1.2403258
0.026538242 0.22890322 1.2375866
0.017894579 0.22891241 1.237738
0.0092791207 0.22963682 1.2417654
0.0006065676 0.22945915 1.2408154
-0.0080776857 0.22999671 1.243741
-0.016762985 0.22999153 1.2436564
-0.02532821 0.22890472 1.2376112
-0.03407748 0.22961107 1.2413423
-0.042779081 0.22977483 1.2420635
-0.051411774 0.22957565 1.2407591
-0.060075507 0.22955258 1.2403789
-0.068628855 0.22916672 1.237975
-0.077333562 0.2293161 1.2384591
-0.086115547 0.22964145 1.2398649
-0.09469828 0.22942457 1.2382668
-0.10342479 0.22956318 1.2385716
0.035360735 0.22137392 1.2448155
0.026569888 0.22052152 1.2401035
0.018000232 0.22156823 1.2461643
0.0092901662 0.22122774 1.2442876
0.0006053893 0.22036487 1.2393967
-0.0080809779 0.22140121 1.2452809
-0.016678104 0.22018546 1.2383021
-0.025278863 0.21983117 1.2361895
-0.033904631 0.21981931 1.2359875
-0.042796496 0.22118756 1.2436018
-0.051150985 0.21978533 1.2354074
-0.060193993 0.22131935 1.2438834
-0.068602942 0.22042914 1.2385255
-0.077425569 0.22091864 1.2409774
-0.085881069 0.22036752 1.2374717
-0.094662562 0.22067723 1.2388207
-0.10330492 0.22063783 1.2381452
0.035236429 0.21193811 1.2413679
0.026517779 0.21145131 1.2386211
0.017908899 0.21179232 1.2407445
0.0092647485 0.21196382 1.2418232
0.00060752849 0.21246445 1.2448151
-0.0080715194 0.21246302 1.2447897
-0.0167764 0.2127907 1.246677
-0.025368376 0.21195142 1.2416035
-0.033891249 0.21110883 1.2364722
-0.042512018 0.21109413 1.2362117
-0.051090524 0.21090995 1.234907
-0.059982359 0.21188574 1.2404389
-0.068629816 0.21186101 1.2400001
-0.077031612 0.21116842 1.2355655
-0.086049423 0.21213393 1.2409135
-0.09447708 0.211601 1.2373469
-0.10318339 0.2117292 1.2376558
0.035332672 0.20383573 1.2457448
0.026590357 0.20336869 1.2429954
0.017901601 0.2030579 1.2411731
0.0092755174 0.20354147 1.2442272
0.00060728251 0.20370282 1.2452482
-0.00803666 0.20290387 1.2402867
-0.01666473 0.20273975 1.2392153
-0.025278432 0.20257251 1.2380853
-0.03390405 0.20256157 1.2378833
-0.042528059 0.20254743 1.2376227
-0.051109795 0.20237064 1.2363168
-0.060052037 0.20346636 1.2428414
-0.068547972 0.20296426 1.2394447
-0.077424407 0.20357503 1.242889
-0.085609935 0.20242912 1.235437
-0.09466096 0.20335218 1.2407302
-0.10322215 0.20315643 1.239071
0.035317823 0.19507249 1.2461183
0.026620861 0.19493069 1.2453415
0.01793623 0.19478585 1.2445055
0.0092425225 0.19417956 1.2406453
0.00060322118 0.19372296 1.2377141
-0.0080332542 0.19417998 1.2406536
-0.01665766 0.19402282 1.2395811
-0.025287597 0.19401538 1.2394379
-0.033916336 0.19400488 1.2392361
-0.042476475 0.19368581 1.2369998
-0.051128305 0.19382197 1.2376683
-0.05969714 0.19364959 1.2363029
-0.068303451 0.19362694 1.2358663
-0.076906525 0.19360119 1.2353709
-0.08570829 0.19403046 1.2377748
-0.094249845 0.19384599 1.2361753
-0.10285444 0.19381122 1.235503
0.035247091 0.18602157 1.2444531
0.026504893 0.18544799 1.2407076
0.017886173 0.18560156 1.2418482
0.0092602838 0.18589824 1.2439193
0.00060628628 0.18604596 1.2449423
-0.0080234008 0.18531451 1.2399703
-0.016663449 0.18545637 1.2408755
-0.025296386 0.18544923 1.2407323
-0.033928119 0.18543915 1.2405303
-0.042491227 0.18513416 1.238292
-0.051065437 0.18497227 1.2369844
-0.059717849 0.18509948 1.2375948
-0.068434887 0.18536967 1.2391336
-0.076993845 0.18519908 1.2376499
-0.085737951 0.18546337 1.2390693
-0.094133966 0.18499525 1.2354954
-0.10288995 0.18525368 1.2367958
0.035986997 0.39329293 1.2399411
0.027208321 0.39421064 1.2430191
0.018360289 0.39452466 1.2441288
0.0094692335 0.39363733 1.2413613
0.00061759807 0.39244509 1.2375785
-0.0082115531 0.39274141 1.2385068
-0.017014869 0.39213526 1.2365123
-0.025869293 0.3927187 1.2382741
-0.034749426 0.39329621 1.2399751
-0.04345613 0.39207479 1.2358925
-0.052067313 0.39054874 1.2307979
-0.06112108 0.39230376 1.2361313
-0.069933079 0.39226013 1.2356837
-0.078741923 0.3922106 1.2351756
-0.087680608 0.39275259 1.2365115
-0.096422046 0.39239272 1.2349308
-0.10546607 0.39322135 1.2370946
0.036038142 0.38499725 1.2435549
0.027102448 0.38384849 1.2399464
0.018163646 0.3815245 1.2324518
0.0094395187 0.38358006 1.2392398
0.00061800628 0.3838757 1.2402304
-0.0082232337 0.38445792 1.242117
-0.017000161 0.38298786 1.2372496
-0.025827289 0.38326624 1.2380595
-0.034693114 0.38383114 1.2397649
-0.043484829 0.38351324 1.2385418
-0.052221291 0.38289738 1.2363039
-0.061161429 0.38373718 1.2387826
-0.070139103 0.38457102 1.2411991
-0.078913875 0.38423017 1.2397352
-0.08780513 0.38446799 1.2401201
-0.096485563 0.38382363 1.2375828
-0.10577592 0.38551021 1.2426118
0.035951935 0.37524295 1.2423239
0.027181963 0.37612057 1.2454135
0.018356461 0.37670672 1.2474852
0.0093880352 0.37271416 1.2341647
0.0006184064 0.37528974 1.2428234
-0.0082223034 0.37557319 1.2437558
-0.016985197 0.37385014 1.2379202
-0.025706014 0.37269324 1.2339419
-0.034662686 0.37467447 1.2404417
-0.043280814 0.37293485 1.2344285
-0.0521354 0.37347582 1.2360177
-0.060967918 0.37372538 1.2365888
-0.069651134 0.37311223 1.2342287
-0.07854452 0.37363616 1.2356358
-0.087260947 0.37329757 1.2341132
-0.096400872 0.37466687 1.2382648
-0.10536304 0.37517366 1.2394862
0.03591992 0.36608323 1.2429376
0.027157849 0.36694074 1.2460327
0.018284481 0.36639646 1.2442679
0.0093795797 0.3636125 1.2347609
0.00061549951 0.36473268 1.2386357
-0.0081523769 0.36361322 1.234769
-0.016930994 0.3638846 1.2356436
-0.025722308 0.36415049 1.2364581
-0.034499459 0.3641316 1.2362523
-0.043241866 0.36382806 1.2350272
-0.052048672 0.36407736 1.2356613
-0.060819961 0.36404207 1.235276
-0.069748573 0.36483866 1.2377069
-0.078413941 0.36423409 1.2352837
-0.087048881 0.36362416 1.2328022
-0.095873609 0.36384606 1.2331352
-0.1055098 0.36685216 1.2429768
0.035887364 0.35693392 1.2434849
0.026905844 0.35477164 1.2360048
0.018170319 0.35533088 1.2380826
0.0093781902 0.35479391 1.2362525
0.00061399507 0.3550697 1.2372488
-0.0081762308 0.35588548 1.2401092
-0.016928496 0.35505965 1.2371374
-0.025698785 0.35504663 1.2369919
-0.034467909 0.35502818 1.2367864
-0.043368291 0.35609502 1.2403673
-0.052001063 0.35497519 1.236196
-0.060764298 0.35494059 1.2358109
-0.069471382 0.35462815 1.2344054
-0.078402355 0.35540059 1.236782
-0.086969048 0.35453239 1.2333369
-0.095932879 0.35529393 1.2355912
-0.10461156 0.35496023 1.2339473
0.03577197 0.34699699 1.241075
0.026798008 0.34462073 1.2326158
0.018153436 0.34623095 1.238552
0.0093550282 0.34517467 1.2347903
0.00061531144 0.34704062 1.241572
-0.0081686545 0.34677219 1.2405822
-0.016938768 0.34649855 1.2395327
-0.025734128 0.34675187 1.2403508
-0.034594771 0.34753212 1.2430358
-0.043062322 0.34484789 1.2331358
-0.052032579 0.34641585 1.2385906
-0.060520921 0.34478584 1.2324286
-0.069513448 0.346077 1.2367977
-0.078509971 0.34709668 1.2401416
-0.087021656 0.34598336 1.235729
-0.09591727 0.34646055 1.2370272
-0.10467475 0.34640059 1.2363423
0.03543634 0.33503455 1.2308652
0.02687601 0.33686948 1.237836
0.018178165 0.33792084 1.2418523
0.009324491 0.33533341 1.2322892
0.00061378774 0.33741277 1.2400489
-0.0081421342 0.33689141 1.2380918
-0.016909759 0.33714366 1.2389721
-0.025670337 0.33713114 1.2388266
-0.034456249 0.33737311 1.2395869
-0.042921603 0.33501482 1.2306352
-0.051743504 0.33576557 1.2332071
-0.060603485 0.33651114 1.235718
-0.069340743 0.33647308 1.2352744
-0.078135043 0.33668938 1.2357351
-0.087140046 0.33767861 1.2390256
-0.09590029 0.33762512 1.2384007
-0.10449543 0.33704811 1.2357911
0.16967507 0.33347785 1.2525461
0.16021441 0.33230972 1.2488747
0.15173315 0.33315521 1.2528211
0.14277185 0.33298633 1.2528656
0.1336145 0.33230734 1.2509235
0.12477577 0.33238074 1.2518054
0.11522669 0.33042821 1.2449189
0.10683773 0.33175471 1.2504963
0.097406335 0.32979137 1.2434783
0.088689357 0.33009708 1.2450784
0.079771355 0.32963958 1.2437227
0.070876673 0.32917693 1.2423053
0.062005717 0.32870927 1.2408267
0.053240787 0.32874221 1.24122
0.044439219 0.32851723 1.2405866
0.14263532 0.32379198 1.253183
0.1334863 0.32313079 1.2512349
0.12399208 0.3214806 1.2453637
0.11520333 0.32154688 1.2461802
0.10665361 0.32234669 1.2498341
0.097535871 0.32141909 1.2466667
0.088603452 0.32097864 1.2453688
0.079816349 0.32102546 1.2459437
0.070753261 0.31983635 1.2416201
0.062040716 0.32011965 1.2430413
