ply
format ascii 1.0
comment PCL generated
element vertex 1418
property float x
property float y
property float z
element camera 0
property float view_px
property float view_py
property float view_pz
property float x_axisx
property float x_axisy
property float x_axisz
property float y_axisx
property float y_axisy
property float y_axisz
property float z_axisx
property float z_axisy
property float z_axisz
property float focal
property float scalex
property float scaley
property float centerx
property float centery
property int viewportx
property int viewporty
property float k1
property float k2
end_header
-0.10554409 0.10076115 1.5377605
-0.11682361 0.10132553 1.5459603
-0.084647089 0.09051796 1.5456885
-0.095247604 0.090447918 1.544078
-0.1051533 0.089798599 1.5324357
-0.11572341 0.089783594 1.531682
-0.084009223 0.079242006 1.5343028
-0.094590247 0.07923127 1.5336936
-0.1053021 0.07932125 1.5350051
-0.11596162 0.079358943 1.5352461
-0.084317669 0.16459492 1.5356134
-0.094998449 0.16467819 1.5359946
-0.10568827 0.16475879 1.5363022
-0.11638668 0.16483679 1.5365368
-0.084283836 0.15390037 1.5357068
-0.094899543 0.15387969 1.5350955
-0.10557832 0.1539551 1.5354047
-0.11634005 0.15412661 1.5366327
-0.08441066 0.1434875 1.5387093
-0.094859906 0.14319278 1.535115
-0.10560185 0.1433548 1.5364188
-0.11636595 0.14351448 1.5376481
-0.08437416 0.13278559 1.5386571
-0.094940394 0.13268267 1.5370505
-0.10602946 0.1332576 1.5433252
-0.1162412 0.13272557 1.5366037
-0.084282286 0.12201271 1.5375357
-0.094958596 0.12207446 1.5379196
-0.10564395 0.12213422 1.5382301
-0.11611459 0.12195752 1.5354848
-0.062767908 0.11092878 1.5323608
-0.073628508 0.11134586 1.5378745
-0.03158446 0.10219135 1.5619775
-0.042201035 0.10179793 1.55574
-0.052599341 0.10114438 1.5454421
-0.062777966 0.10036008 1.5330817
-0.073640309 0.10073742 1.5385979
-0.031069539 0.089921393 1.5366869
-0.041805156 0.090205543 1.5414284
-0.053346459 0.091760248 1.5680466
-0.063070044 0.090191238 1.5407128
-0.073745422 0.090239726 1.5412436
-0.04229296 0.080496542 1.5599779
-0.062835529 0.079259671 1.5353049
-0.073424146 0.079251476 1.53484
-0.031147497 0.16456082 1.5365893
-0.041775748 0.16455179 1.5363402
-0.05250271 0.16485637 1.5390007
-0.0631065 0.1647367 1.5376126
-0.073693663 0.16461442 1.5361526
-0.031234792 0.15436168 1.5416554
-0.041812524 0.15405734 1.5384218
-0.052414548 0.15394779 1.5371057
-0.063161984 0.15423028 1.5396948
-0.073758475 0.15411583 1.5382334
-0.031082081 0.14299875 1.5347077
-0.041741557 0.1431746 1.5364505
-0.052426271 0.14334811 1.5381197
-0.063054919 0.14333566 1.5377259
-0.073633343 0.1432291 1.5362648
-0.052336395 0.13248645 1.5360742
-0.06302762 0.132645 1.537672
-0.07341259 0.13220623 1.5322295
-0.031234322 0.12237883 1.543492
-0.041918978 0.12245035 1.544239
-0.052346449 0.12189396 1.5369419
-0.062958904 0.12188335 1.5365486
-0.073615558 0.12194901 1.5370786
-0.095287912 0.21853267 1.5363935
-0.095075198 0.20739807 1.5338911
-0.10570615 0.20736712 1.5332062
-0.11692637 0.20839211 1.5403559
-0.084411219 0.19671115 1.5348918
-0.095043048 0.19668484 1.5342795
-0.10567036 0.19665545 1.5335948
-0.11740732 0.19850755 1.5476772
-0.084435321 0.18611974 1.5361975
-0.095070161 0.18609479 1.535585
-0.1057005 0.18606696 1.5349005
-0.11647446 0.1862739 1.536123
-0.084458128 0.17551954 1.5374312
-0.095095821 0.17549598 1.5368186
-0.10572899 0.17546968 1.5361336
-0.085437216 0.22064999 1.5518394
-0.06329862 0.21860972 1.5380166
-0.073824063 0.21816979 1.5345811
-0.031192556 0.20738254 1.5354849
-0.041836198 0.20737128 1.5352358
-0.05291377 0.20907915 1.5477922
-0.073611781 0.20692028 1.5310826
-0.031201966 0.19679599 1.5368637
-0.041741855 0.19628228 1.5326476
-0.052594289 0.19714859 1.5392669
-0.063136026 0.19675443 1.5358984
-0.073681086 0.1964829 1.5334492
-0.031091239 0.18548627 1.5322139
-0.041780546 0.18583305 1.5349433
-0.052307379 0.18546306 1.5316449
-0.063073367 0.18592283 1.5352201
-0.073654994 0.18578488 1.5337619
-0.031179452 0.17537107 1.5374173
-0.041845363 0.17547368 1.5381615
-0.052791376 0.17647098 1.546778
-0.063090421 0.17533392 1.5364527
-0.073769234 0.17542812 1.5369785
-0.031979673 0.22353023 1.5736362
-0.042437594 0.22115061 1.5565526
-0.053265747 0.22127433 1.557216
-0.34276417 0.1578393 1.9761641
-0.33977878 0.14283524 1.9594998
-0.34137297 0.19827843 1.9656478
-0.34161639 0.18471681 1.9679353
-0.34117845 0.17079453 1.966203
-0.34041664 0.26599747 1.9547905
-0.33849087 0.25091505 1.9448271
-0.37027276 0.25408992 1.9663569
-0.34061179 0.23882453 1.9582351
-0.34351709 0.28219935 1.9714707
-0.35994792 0.32593819 1.9803748
-0.13333172 0.26202798 1.756373
-0.14453202 0.26023036 1.74359
-0.1568798 0.26061702 1.7455192
-0.16784245 0.25881234 1.7325901
-0.089105815 0.27618945 1.8542106
-0.10195182 0.27615702 1.8535587
-0.16351426 0.30811405 1.9732403
-0.081144527 0.30761027 1.9733151
-0.094912805 0.30788454 1.9746892
-0.095219053 0.33635822 1.9781828
-0.094831385 0.32130465 1.9715564
-0.10882597 0.32222369 1.976777
-0.026494861 0.30860323 1.9807117
-0.04012166 0.30782756 1.9755437
-0.039259195 0.28781137 1.9340779
-0.052708801 0.28808776 1.935742
-0.026571952 0.3645725 1.9804012
-0.040000282 0.36150417 1.9634528
-0.054129332 0.36471868 1.980834
-0.02653037 0.35025573 1.9789023
-0.039897244 0.34695619 1.9599648
-0.053724568 0.34832108 1.9675225
-0.040271051 0.3364625 1.9800315
-0.053718966 0.33461583 1.9688669
-0.02628858 0.31982157 1.9637531
-0.053739253 0.32106808 1.9711034
-0.067576081 0.32184309 1.9756235
-0.08183457 0.39302671 1.9806283
-0.026949257 0.57919925 1.9759004
-0.0097916797 0.015582474 1.5274901
-0.019832633 0.015208465 1.4903926
-0.02012267 0.0050046309 1.5124593
-0.019077707 0.054168828 1.4324614
-0.01926358 0.044715472 1.4467896
-0.019106802 0.034451656 1.4350653
-0.019120889 0.024569865 1.4362662
-0.020326527 0.068246566 1.5269569
-0.0098093012 0.047253389 1.5298467
0.011286646 0.036708035 1.5301228
0.00073841133 0.026161263 1.5303785
0.022005612 0.015733521 1.542365
0.011367865 0.015723823 1.5414791
0.00074130076 0.015673472 1.5365205
0.02200596 0.0051028659 1.542436
0.011375346 0.0051029958 1.5425501
0.0007408348 0.0050801146 1.5355914
-0.0098743327 0.005096456 1.5405601
0.0220907 -0.0055493256 1.548434
0.011382644 -0.0055317255 1.5435487
0.00074274518 -0.0055175829 1.5395901
-0.0098870229 -0.0055281897 1.5425589
-0.020596759 -0.0055493512 1.5484545
0.022019716 -0.016169043 1.5433606
0.011360552 -0.016138338 1.5404749
0.00074416591 -0.016159229 1.542516
-0.009880513 -0.016148748 1.541485
-0.020504234 -0.016148372 1.5413811
0.022442712 -0.027321542 1.5732065
0.011593809 -0.027305041 1.572323
0.00076706766 -0.027614798 1.5903624
-0.010267275 -0.027820945 1.6023282
-0.021504382 -0.02807821 1.6172169
0.022012666 0.06890928 1.5419207
0.011313121 0.0685132 1.5330437
0.00074440503 0.068911657 1.542076
-0.0098710051 0.068778574 1.5390478
0.022000667 0.058243368 1.5413554
0.011299614 0.057871003 1.5314766
0.0007397015 0.057908922 1.532517
-0.0098402351 0.057983287 1.5344845
0.022002434 0.047618851 1.5417166
0.011307822 0.047344975 1.5328349
0.00074023858 0.047375973 1.5338756
0.021933233 0.036873315 1.5370072
0.00074076367 0.036827095 1.5351623
-0.0098226219 0.03675561 1.5321324
0.021948414 0.026295731 1.5382224
0.011338297 0.026279474 1.5373362
-0.009823096 0.026194924 1.5323472
0.064635821 0.015759673 1.5441817
0.054130618 0.015801478 1.5485837
0.043318331 0.015752155 1.5439188
0.032676887 0.015753062 1.5441781
0.064719655 0.0051178969 1.5462509
0.05402771 0.0051150825 1.545657
0.043374557 0.0051154597 1.5459893
0.032656454 0.005105929 1.5432496
0.065133713 -0.0055797924 1.556241
0.054062277 -0.0055448185 1.5466549
0.043374538 -0.0055416794 1.5459877
0.032656446 -0.0055313548 1.5432481
0.064842783 -0.016237373 1.5491725
0.054026801 -0.016197357 1.5455813
0.04342936 -0.01621929 1.5479127
0.032697801 -0.016189113 1.5451735
0.065296136 -0.027108086 1.5600144
0.054543845 -0.027110523 1.5604233
0.043761153 -0.027095331 1.5597594
0.033220381 -0.027268825 1.5700175
0.064532302 0.068891205 1.5407398
0.053974934 0.068985768 1.5431404
0.043304428 0.06894666 1.5424739
0.032750156 0.069127418 1.5467283
0.064538516 0.058265459 1.5411735
0.053910986 0.058270693 1.5415777
0.043308601 0.058312368 1.542908
0.032585781 0.058166195 1.539171
0.064626507 0.047698021 1.5435321
0.053984467 0.047702298 1.5439365
0.043284312 0.047644697 1.5422704
0.032588392 0.047555748 1.5395315
0.064547837 0.037006047 1.5418234
0.053953357 0.037033115 1.5432268
0.043287098 0.037012104 1.5425594
0.032569543 0.036919266 1.5388205
0.064633749 0.026407234 1.5440377
0.053921364 0.026375774 1.5424439
0.043205876 0.026326962 1.539777
0.03267584 0.026396157 1.5440344
0.11824933 0.015809339 1.5470519
0.10751698 0.015801933 1.5468247
0.096793093 0.015794275 1.5465239
0.085968085 0.015766175 1.5441529
0.075228021 0.015747909 1.5427053
0.11787388 0.0051110946 1.5421376
0.10738137 0.0051185084 1.5449008
0.097042017 0.0051356629 1.5505877
0.085969441 0.0051134564 1.5442241
0.075277433 0.0051108063 1.5437756
0.11817569 -0.00555113 1.5461248
0.10744999 -0.0055485284 1.5458972
0.096794583 -0.0055493824 1.5465939
0.085969411 -0.0055395095 1.5442225
0.07527741 -0.0055366387 1.5437739
0.11855108 -0.016277986 1.551036
0.10792883 -0.016291114 1.5528058
0.096607447 -0.016189974 1.5435255
0.08591295 -0.01618184 1.5431498
0.075276174 -0.016183816 1.5436999
0.11877359 -0.027037865 1.5538795
0.10785667 -0.026990913 1.5516607
0.09728463 -0.027029436 1.554356
0.086570583 -0.027033165 1.5549833
0.075900599 -0.027053652 1.5565361
0.11790981 0.06902042 1.541617
0.10748261 0.069164611 1.5453751
0.096762113 0.069131076 1.5450752
0.085995562 0.069052234 1.5437039
0.075300328 0.069016464 1.5432565
0.1176948 0.05826268 1.5390624
0.107287 0.058384623 1.5428199
0.096585922 0.058356248 1.5425184
0.085783735 0.058252193 1.5401477
0.07521116 0.058296669 1.541695
0.11808145 0.047787286 1.5444069
0.1072956 0.047734324 1.5431821
0.096655481 0.047741666 1.5438777
0.086010732 0.047748249 1.5445009
0.0752654 0.047692969 1.5430548
0.11823989 0.037170302 1.5466903
0.10702784 0.036986817 1.5394818
0.096785374 0.037134882 1.5461628
0.085961215 0.03706881 1.5437922
0.075414889 0.037120804 1.5463396
0.11786827 0.026405934 1.5419226
0.1074449 0.026461145 1.5456831
0.096542619 0.026397575 1.5423881
0.08602038 0.026435044 1.5450073
0.075225621 0.026387524 1.5425617
0.16115028 0.015826337 1.5462275
0.15087532 0.015870359 1.5512718
0.13938105 0.015783044 1.543301
0.12923637 0.015846748 1.550195
0.16084486 0.0051231598 1.5433147
0.15049428 0.0051341653 1.5473619
0.13929418 0.0051156557 1.5423762
0.12915616 0.0051363176 1.54927
0.16166598 -0.0055783559 1.551271
0.15087765 -0.0055761142 1.5513421
0.14018475 -0.0055773263 1.5523348
0.12940292 -0.0055749076 1.5522584
0.16166334 -0.01630576 1.5511962
0.15097103 -0.016309559 1.5522625
0.14027154 -0.01631311 1.5532564
0.12866043 -0.016202442 1.5432147
0.16165811 -0.027032381 1.5510484
0.15096617 -0.027038686 1.552115
0.13919827 -0.026838506 1.5411578
0.12939662 -0.027015666 1.552036
0.16150948 0.069448046 1.5487506
0.15073147 0.069420077 1.5488217
0.14022696 0.069523424 1.5518038
0.12853727 0.069007613 1.5407765
0.16162752 0.058773682 1.5501819
0.15074588 0.058712725 1.5492588
0.13997325 0.058688141 1.5492555
0.12830284 0.058251865 1.538223
0.16143513 0.047991369 1.5485579
0.15123709 0.048155133 1.5545974
0.13980632 0.047921412 1.5476284
0.12872435 0.047778416 1.543565
0.16072696 0.037115481 1.5418878
0.15009657 0.037124135 1.5429481
0.13945903 0.0371322 1.5439358
0.1292261 0.037258267 1.5498326
0.16104254 0.026502058 1.5450884
0.15029544 0.026491342 1.5451555
0.14008911 0.026581593 1.5511241
0.12890324 0.02648554 1.5460644
0.17734237 0.060475212 1.5947345
0.17998235 0.050175577 1.6189542
0.18119738 0.039238792 1.6301892
0.18405686 0.016951133 1.6564133
0.18438801 0.0055075795 1.6594718
0.18131544 0.02798151 1.6314124
0.070820868 -0.13298117 2.0280533
0.028905887 -0.13293916 2.0280764
0.070705786 -0.14671102 2.0241079
0.070852391 -0.17496489 2.026895
0.1187396 -0.04608193 1.9003706
0.10709355 -0.046712399 1.9270893
0.15456098 -0.045074914 1.8566897
0.14215922 -0.045203257 1.862685
0.12988855 -0.045402918 1.87159
0.014535358 -0.04781726 1.9749726
0.06757988 -0.046919338 1.9368674
0.054476641 -0.047114909 1.9452776
0.041596763 -0.04769399 1.9695915
0.028076734 -0.047743998 1.9718282
0.094027303 -0.046814125 1.931769
0.080736384 -0.046819083 1.9323653
0.22459432 0.058944542 1.9036028
0.22542194 0.045956008 1.9109106
0.22543263 0.032751825 1.9111792
0.23345023 -0.034463618 1.9796925
0.22927815 0.0064472286 1.9442221
0.22927807 -0.0069844127 1.9442203
0.23345774 -0.020788232 1.9798809
0.22915836 0.019868487 1.9431392
-0.0096119987 0.10831577 1.4966949
-0.019894382 0.1080275 1.4926045
-0.020408913 0.14254512 1.5299052
0.032385483 0.13165179 1.5266514
0.022014758 0.11145645 1.5404575
0.011372598 0.11138781 1.5395741
0.00074208959 0.11110304 1.5356256
0.021961832 0.10057891 1.5371906
0.011418197 0.10116323 1.546285
0.00074364064 0.10071167 1.5393412
-0.0099242702 0.10116345 1.5462953
-0.020568723 0.10103184 1.5441957
0.021908544 0.08975102 1.5338478
0.011354176 0.089984618 1.5379544
0.00074565766 0.090332426 1.5439855
-0.0099130208 0.090389639 1.5449528
-0.020479565 0.089982741 1.537861
0.022038424 0.079636499 1.5434115
0.011304549 0.079026304 1.5315413
0.00074241159 0.079333141 1.5375749
-0.0098825796 0.07948564 1.5405396
-0.020429546 0.079177715 1.5344443
0.022062358 0.16498818 1.5407225
0.011331622 0.16393805 1.5308927
0.00074179465 0.16404496 1.5319282
-0.0099313613 0.16530895 1.5438302
-0.020504607 0.16446179 1.535771
0.021968938 0.15367654 1.5348468
0.011407227 0.15437087 1.541926
0.00074149546 0.15338586 1.5320162
-0.0098893931 0.15397666 1.5379558
-0.020548962 0.15417041 1.5398421
0.022058479 0.14364663 1.541833
0.011380619 0.14337471 1.5389602
0.00074261555 0.1430086 1.5350183
-0.0098472498 0.14273207 1.5319997
0.022006642 0.13267782 1.5387917
0.01135382 0.13242601 1.5359167
0.00074515538 0.13285248 1.5409398
-0.0099380333 0.13336188 1.5468867
-0.020531535 0.13276348 1.5398083
0.021982655 0.12191357 1.5376674
0.011414351 0.1224644 1.5447593
0.00074386731 0.12199602 1.5388193
-0.009946283 0.12277769 1.5487571
-0.020522328 0.1220706 1.5396812
0.064538486 0.11142728 1.5392762
0.053980052 0.11158012 1.5416739
0.04333628 0.11158831 1.542006
0.03264856 0.11145183 1.540271
0.064548843 0.10081108 1.5400004
0.053954147 0.10088473 1.5414019
0.043343235 0.10095678 1.5427312
0.032653797 0.10083329 1.5409951
0.064558156 0.090190023 1.540652
0.053789094 0.089966819 1.5370654
0.043321744 0.090262555 1.5423858
0.032658521 0.090209916 1.5416471
0.064525053 0.079513624 1.5402334
0.05386515 0.07946974 1.5396392
0.043327309 0.079628617 1.5429654
0.032704595 0.07968422 1.5442233
0.064636804 0.16483989 1.5385453
0.054200169 0.16548698 1.5449129
0.043291256 0.16465576 1.5372939
0.032760974 0.16519222 1.542524
0.064569585 0.15403098 1.5376451
0.054213144 0.15483366 1.5460055
0.043273892 0.15395732 1.5373863
0.032601528 0.15376884 1.5356556
0.064666718 0.14360918 1.5406497
0.053845353 0.14316285 1.5360787
0.043311305 0.14344881 1.5393958
0.032608826 0.1431815 1.5366685
0.064680152 0.13298331 1.5415931
0.053960182 0.13282512 1.5400066
0.043348048 0.13291988 1.5413343
0.064651214 0.12227286 1.5414683
0.054074202 0.12244025 1.5438656
0.043356378 0.12229275 1.542205
0.032684654 0.12222152 1.5414679
0.022037799 0.20738965 1.5356412
0.011391797 0.20739482 1.5357553
0.00074477837 0.20726418 1.5348054
-0.0099013243 0.20739529 1.5357654
-0.020547431 0.20739059 1.5356616
0.022044444 0.19680271 1.5370198
0.011387954 0.19668187 1.5361419
0.00074500311 0.19668368 1.5361834
-0.0099043101 0.19680806 1.5371441
-0.02055363 0.19680361 1.5370402
0.022022577 0.18596855 1.5363408
0.011398497 0.18621117 1.5384405
0.00074569293 0.18621285 1.5384821
-0.0099008158 0.18609259 1.5374577
-0.020533241 0.1859694 1.5363612
0.021972165 0.17492826 1.5335991
0.011416156 0.17583032 1.541662
0.00074541825 0.1754953 1.5387225
-0.0099731516 0.17672838 1.5496216
-0.020525659 0.17526568 1.5366002
0.023171065 0.22924818 1.6143926
0.011853902 0.22688614 1.5976788
0.00077453337 0.2266096 1.5957413
-0.010296643 0.22674735 1.5966991
-0.021354679 0.22660296 1.595601
0.064688802 0.20760104 1.5364394
0.054070923 0.20775189 1.5378351
0.043492243 0.20816445 1.54114
0.03268275 0.2073812 1.5354546
0.064997353 0.19788329 1.5447582
0.054018233 0.19689494 1.5372331
0.043366898 0.19690925 1.5375655
0.032755278 0.19717193 1.5398088
0.06485071 0.18675302 1.5421038
0.053999178 0.18617477 1.5375482
0.043407008 0.18642625 1.5398653
0.032722857 0.18631786 1.5391324
0.064909555 0.17622897 1.5443341
0.054186352 0.17613244 1.5437475
0.04328021 0.17524771 1.5361344
0.032794423 0.17604311 1.5433476
0.034718331 0.23160644 1.631027
0.11875054 0.11242152 1.551088
0.10735559 0.11172661 1.5419106
0.096524082 0.11152952 1.5396203
0.085838772 0.11147344 1.5392468
0.075066574 0.1112727 1.5368071
0.11771378 0.10080642 1.5378875
0.10764717 0.10134019 1.5466187
0.096601337 0.10096814 1.5413408
0.086127497 0.10117583 1.5449529
0.075126797 0.10073584 1.5385271
0.1180324 0.090416901 1.5425212
0.10683925 0.089969933 1.5353223
0.09655343 0.09027271 1.5409971
0.08608491 0.090458535 1.54461
0.075089425 0.090064868 1.5381808
0.11767032 0.079509892 1.5381224
0.10747058 0.079829231 1.5448672
0.096380353 0.079484597 1.5385865
0.085820876 0.079546534 1.5402049
0.075195469 0.079556219 1.5407544
0.11817583 0.16525404 1.5403911
0.10758711 0.16538718 1.5421532
0.096917942 0.16541238 1.5428507
0.085694849 0.16438125 1.5335464
0.075277492 0.16482262 1.5380679
0.11812866 0.15451704 1.5404902
0.10795549 0.15523297 1.5482092
0.096447118 0.15397516 1.5359973
0.08609993 0.15448916 1.541587
0.07510291 0.15381761 1.5351803
0.11830565 0.14406151 1.5434937
0.10743108 0.14381047 1.5412842
0.096345127 0.14318994 1.535024
0.085844368 0.14339311 1.5376334
0.075504921 0.14396134 1.5441505
0.11780258 0.13280728 1.5374856
0.1073162 0.13299966 1.5402411
0.096859261 0.13327497 1.5439203
0.085752241 0.13261318 1.5365858
0.075568765 0.13339442 1.5460916
0.1178251 0.12218904 1.5383554
0.10726815 0.12228786 1.5401176
0.096383557 0.12199378 1.536833
0.08620853 0.12263621 1.5454178
0.075197883 0.12210354 1.5389992
0.17296575 0.11279911 1.5530651
0.16101199 0.11197121 1.5423026
0.15112877 0.11256789 1.5513074
0.13970608 0.11202142 1.5443542
0.1289607 0.11197254 1.544277
0.17310256 0.10211655 1.55479
0.16196072 0.10188375 1.5519638
0.15076965 0.10158471 1.5480655
0.13928331 0.10102573 1.5401123
0.12881684 0.10117517 1.5430154
0.17323665 0.091415524 1.5564423
0.16157356 0.09091866 1.5486501
0.15079126 0.090882048 1.548722
0.13948131 0.090497479 1.5427539
0.12875313 0.090457916 1.5426744
0.16159409 0.080207333 1.5492337
0.15004398 0.079767548 1.5413529
0.13896498 0.079530105 1.5373666
0.12868735 0.079749942 1.5422599
0.1720234 0.16570772 1.541383
0.16125605 0.1656433 1.5415312
0.15097302 0.16610254 1.5465541
0.13973971 0.16550659 1.541605
0.12956645 0.16617142 1.5484679
0.17348437 0.1563195 1.5553358
0.16139679 0.15507804 1.5436146
0.15081748 0.15521234 1.5456699
0.14012858 0.15524578 1.5466623
0.12984368 0.15576942 1.5525405
0.17297642 0.14509787 1.5514166
0.16133006 0.14430855 1.5436456
0.15046808 0.14415851 1.5427275
0.14007078 0.14446478 1.5466932
0.1290511 0.14412671 1.5436428
0.17224695 0.13376743 1.5454373
0.16095322 0.1332911 1.5406293
0.15040338 0.13340688 1.5426828
0.13992181 0.13360557 1.5456574
0.12850264 0.13286772 1.5376384
0.17282628 0.12346274 1.551268
0.1619067 0.12333706 1.5504273
0.15043205 0.12274063 1.5435567
0.13959265 0.12261087 1.5425607
0.12910244 0.12279175 1.5454636
0.1191735 0.20971099 1.550127
0.10787857 0.20868669 1.5429927
0.09711875 0.20858586 1.542703
0.085983813 0.20755453 1.5354118
0.075674638 0.2085067 1.542892
0.11920928 0.19900525 1.5515213
0.10777405 0.19778201 1.5424007
0.096901231 0.19743496 1.5401291
0.086284123 0.19758749 1.5417442
0.075745516 0.19798836 1.5452693
0.11766235 0.18579389 1.5320511
0.10753079 0.18665726 1.5397514
0.096682072 0.18632889 1.5374757
0.086144045 0.1865921 1.5400816
0.075622834 0.18697138 1.5436083
0.11822115 0.17599683 1.5402185
0.10708022 0.17524156 1.5340493
0.096893303 0.17605317 1.5416861
0.086002558 0.17562857 1.5383421
0.075595148 0.17621054 1.543855
0.16302268 0.21072878 1.5551623
0.15195319 0.21038017 1.553278
0.14056201 0.20949875 1.5473673
0.12999722 0.20980501 1.5502651
0.17374058 0.19979629 1.5544279
0.16266194 0.1994687 1.552616
0.1507559 0.19800781 1.5418395
0.1409594 0.19930606 1.5527123
0.12888764 0.19733588 1.5378186
0.17258896 0.18773217 1.5448984
0.16137689 0.18718438 1.541101
0.15089433 0.18746506 1.5441422
0.14028868 0.1876241 1.5461241
0.12966287 0.18778025 1.5480338
0.1735087 0.17793556 1.5540439
0.1615226 0.17663524 1.54333
0.15103047 0.17689998 1.5463737
0.14014865 0.17671388 1.545388
0.12936942 0.17663701 1.5453175
0.17511813 0.081511155 1.573905
0.17732547 0.071504027 1.5942844
0.17488885 0.21199971 1.5638654
0.2034523 0.20833902 1.7152723
0.20494984 0.18585964 1.7298051
0.20339477 0.22019544 1.7138106
0.17105354 0.26803192 1.8851862
0.014572789 0.3061651 1.9650208
0.00094621995 0.30387616 1.9502498
-0.012748288 0.30815187 1.977881
0.014432367 0.28972673 1.9472783
0.00094940432 0.2913357 1.958213
-0.012468201 0.28797495 1.9354198
-0.025913632 0.28840655 1.9382567
0.014666529 0.36296272 1.9716688
-0.012712075 0.32094544 1.9707963
0.00097373815 0.36835653 2.0012341
-0.012917987 0.36781505 1.998242
0.014737879 0.35095471 1.9829628
0.00096415606 0.35095787 1.9830165
-0.012796986 0.35060957 1.9810063
0.014714601 0.3366484 1.9813663
0.00096263317 0.33665141 1.9814198
-0.012802011 0.33698165 1.9833516
0.014720159 0.3230184 1.9836165
0.0009620458 0.32270229 1.9816958
0.041418388 0.31677663 1.9447359
0.028096937 0.31870359 1.9568177
0.069174968 0.30671671 1.9678304
0.055562656 0.30689165 1.969244
0.042059291 0.30797827 1.9764925
0.028036788 0.30447701 1.9540052
0.06833744 0.28952441 1.9451597
0.054751955 0.28896129 1.9416244
0.041447811 0.28999975 1.9488755
0.027821371 0.2886973 1.9402096
0.069618948 0.36361155 1.9744533
0.056029465 0.36453584 1.979798
0.042077903 0.36293918 1.971282
0.028471204 0.36421153 1.9784075
0.069509648 0.34933066 1.97295
0.055886537 0.34987456 1.9763311
0.042115878 0.34954822 1.9746962
0.069468066 0.33541986 1.9733158
0.055687375 0.33494535 1.9707862
0.041694619 0.3324706 1.9563314
0.028437756 0.33630759 1.979247
0.069425419 0.32152057 1.973585
0.055763692 0.32170317 1.9749985
-0.012780786 0.39139399 1.9734126
0.12314135 0.30520597 1.9563217
0.1100727 0.30662143 1.9659963
0.096252345 0.30604714 1.9627525
0.081863135 0.30317688 1.9446015
0.12318399 0.29173017 1.9583578
0.10989151 0.29249945 1.9640908
0.095468931 0.2900528 1.947996
0.082881682 0.29329473 1.9703469
0.083425604 0.36393911 1.9758972
0.11066023 0.34939569 1.9720905
0.083294764 0.349646 1.9743973
0.097093157 0.33618686 1.977106
0.082750484 0.33372858 1.9629433
0.096553609 0.32066187 1.9675207
0.083152726 0.32165185 1.9740508
0.16526483 0.30780068 1.9711133
0.15144987 0.30755135 1.9702233
0.13621883 0.30409136 1.948534
0.16466621 0.29304314 1.9652795
0.15075037 0.29251298 1.9624107
0.13708688 0.29241574 1.9624058
0.15256874 0.36495221 1.9787468
0.13874115 0.36483285 1.9787594
0.16491511 0.34813905 1.9624339
0.15225522 0.35044843 1.9762797
0.12484833 0.35073167 1.9791528
0.16596203 0.33659911 1.9765553
0.12415852 0.33510485 1.9696889
0.16512337 0.32121769 1.9679834
0.15169577 0.32175407 1.9720165
0.12451316 0.32233405 1.9768553
0.096974798 0.37692615 1.9698082
0.21529579 0.11956678 1.822171
0.21544267 0.10702722 1.8239354
0.21616694 0.094723456 1.8305742
0.20817672 0.16439502 1.7588807
0.21007653 0.1535885 1.7757946
0.21197379 0.1425577 1.7926432
0.21177849 0.13001989 1.7915924
0.20524606 0.19815207 1.731457
0.20546238 0.17428799 1.7349856
0.18505712 0.26936537 1.8938315
0.24193682 0.20725971 1.9296838
0.24174842 0.19371988 1.9290773
0.24081933 0.17964834 1.9224477
0.2416887 0.23379742 1.9256887
0.24138509 0.22014539 1.9242798
0.24418513 0.1686459 1.9503255
0.24435425 0.15524004 1.952419
0.24390526 0.14145699 1.9494728
0.26023352 0.1975974 1.9668497
0.2595135 0.18344219 1.9622275
0.2622155 0.26785314 1.9766407
0.24400088 0.2630403 1.9419895
0.26216397 0.25405306 1.9774377
0.24505468 0.25061491 1.951614
0.25958893 0.22433281 1.9600273
0.27631313 0.24065542 1.9802394
0.21344364 0.27201784 1.9108132
0.19888048 0.27027693 1.8994192
0.22840422 0.27403161 1.924064
0.1932386 0.30874231 1.9755579
0.17892174 0.30774 1.9699392
0.19215912 0.29336023 1.9658012
0.17649885 0.29006854 1.9444034
0.18041967 0.36553279 1.9803964
0.22079097 0.35007811 1.9699161
0.20638695 0.34895426 1.9645182
0.19387983 0.35110584 1.9776438
0.22065896 0.33613768 1.9702982
0.20759104 0.33721498 1.9776419
0.19242892 0.33480173 1.9642888
0.17914483 0.33553684 1.9694839
0.22008774 0.32157192 1.9666576
0.19297823 0.3220419 1.9714398
0.17832528 0.32035795 1.9618942
0.23531137 0.30988875 1.9800165
0.24895015 0.28215274 1.9804391
0.24921355 0.33761752 1.9768859
0.23467664 0.33654866 1.971684
0.23476426 0.32292128 1.9739336
0.20815597 0.37957051 1.9781388
0.30840635 0.31413573 2.0011072
0.29467347 0.31439304 2.004142
0.27996188 0.31357974 2.0002315
0.32112786 0.29899555 1.9932348
0.30910933 0.30084592 2.0071151
0.29191914 0.29759964 1.9866594
0.28019363 0.29987845 2.0033038
0.32310724 0.28683299 2.0069633
0.30547202 0.28346482 1.984646
0.29515588 0.28689101 2.0102026
0.27851647 0.28420618 1.9925503
0.3225823 0.27238426 2.0049574
0.30855832 0.2723479 2.0061312
0.29396224 0.27177909 2.0032842
0.28146145 0.27318737 2.0150609
0.27668673 0.36505559 1.9704556
0.30881003 0.35652384 1.9991194
0.2966263 0.35871091 2.0128753
0.28087226 0.35658327 2.0021684
0.32141009 0.34105417 1.9905854
0.30818245 0.34183538 1.9966308
0.29417408 0.34178367 1.9977106
0.28098086 0.3427211 2.0045545
0.32371411 0.32946721 2.0065141
0.30979031 0.32958215 2.0086753
0.29513913 0.32889739 2.0058572
0.28054163 0.32820722 2.0029342
0.30604109 0.39492756 1.975876
0.29286051 0.42365399 1.9781471
0.42499435 0.2187866 2.0192039
0.45640013 0.20607032 2.0301976
-0.23582341 0.015915155 1.5488435
-0.24586628 0.015869291 1.5432475
-0.2594198 0.016044382 1.5592935
-0.23612522 0.0051682997 1.5508931
-0.24602593 0.0051501608 1.544307
-0.25779834 0.0051710811 1.549499
-0.23567794 -0.0055883182 1.5479251
-0.24711654 -0.0056040059 1.5512198
-0.25763571 -0.005598403 1.5485109
-0.23425911 0.069220223 1.5375053
-0.24563339 0.06941583 1.5408051
-0.23353606 0.058357421 1.5330006
-0.24581231 0.058746286 1.5422293
-0.25887543 0.059282828 1.555306
-0.23355444 0.047712013 1.5333623
-0.24614321 0.048090812 1.5445683
-0.25905827 0.048499025 1.5566599
-0.23580495 0.037419148 1.5484798
-0.24553549 0.03726403 1.5409096
-0.25891194 0.037652083 1.5559676
-0.23507074 0.026583498 1.5437548
-0.24757245 0.026776293 1.5539668
-0.2577863 0.026715871 1.5492814
-0.15793225 0.005077559 1.5295403
-0.094244666 0.057834379 1.5286456
-0.058938891 0.014709902 1.4403331
-0.039121147 0.004778184 1.4430676
-0.040648881 0.015308004 1.4999776
-0.050618492 0.015195843 1.4886718
-0.0713761 0.01524341 1.4928352
-0.030467749 0.0049913335 1.5082872
-0.05105653 0.0049710516 1.5017328
-0.061933331 0.0050131837 1.5143385
-0.073031664 0.0050585014 1.5278646
-0.049908195 0.035229336 1.4673421
-0.030677319 0.06784609 1.5177928
-0.05083761 0.066821054 1.4942671
-0.061427213 0.067124531 1.5008724
-0.072912589 0.068178028 1.5243675
-0.030620322 0.05726942 1.515223
-0.040639747 0.056668166 1.4989952
-0.050808884 0.056477234 1.4936891
-0.061311807 0.056659162 1.4982997
-0.072588809 0.057400692 1.5178096
-0.041286435 0.047064457 1.5233268
-0.051216502 0.04654159 1.5060269
-0.061559401 0.046506956 1.5046432
-0.071318552 0.046104945 1.4912084
-0.040350705 0.035730418 1.4886346
-0.061199311 0.035914633 1.495935
-0.071134068 0.035721026 1.4874934
-0.04086208 0.025785767 1.507834
-0.050650507 0.025479387 1.4895324
-0.061242707 0.025612492 1.497144
-0.072602771 0.025981972 1.518663
-0.1803778 0.01576844 1.5390902
-0.19073501 0.015743913 1.5358385
-0.20260172 0.015839998 1.5444173
-0.21296747 0.015814977 1.5410174
-0.22386545 0.015829984 1.5415081
-0.18038063 0.0051141898 1.5391614
-0.19147021 0.0051258379 1.541865
-0.20299129 0.0051471964 1.5474639
-0.21337751 0.005139078 1.5440612
-0.22486518 0.0051569971 1.5485082
-0.18038057 -0.0055403039 1.5391601
-0.19183624 -0.0055635399 1.5448411
-0.20299125 -0.0055760602 1.5474625
-0.2141908 -0.0055884882 1.5500044
-0.22429581 -0.0055725346 1.5445474
-0.18256754 -0.016391143 1.5579582
-0.19280936 -0.01634521 1.5527061
-0.2058215 -0.016526576 1.5692034
-0.21933864 -0.016728254 1.5875766
-0.18032064 0.069018207 1.5376441
-0.19116262 0.069087237 1.5383607
-0.20176516 0.069067024 1.5370204
-0.21371339 0.069486372 1.5455056
-0.2235104 0.069199622 1.5380784
-0.18022256 0.058335505 1.5370859
-0.19130279 0.058468476 1.5397877
-0.20191307 0.058451358 1.5384463
-0.21251388 0.058433343 1.5370327
-0.22381614 0.058600724 1.5404924
-0.18081306 0.047846604 1.542412
-0.19119595 0.047772355 1.5391581
-0.20205785 0.047819316 1.5397998
-0.21239513 0.047743637 1.5364047
-0.22411838 0.04797186 1.5428345
-0.18024831 0.037050478 1.5377368
-0.19120805 0.037111241 1.5394478
-0.20207061 0.037147716 1.5400897
-0.21240851 0.037088923 1.536694
-0.22370559 0.037195224 1.5401565
-0.18025686 0.026405051 1.5379531
-0.19121711 0.026448354 1.5396645
-0.20220897 0.026491221 1.5412983
-0.21268967 0.026466183 1.5388919
-0.22271992 0.026390161 1.5334462
-0.12660249 0.015705954 1.5363649
-0.13753968 0.015743164 1.5394492
-0.14842977 0.015770027 1.5414609
-0.15894671 0.015756302 1.539417
-0.16976799 0.015772576 1.5402846
-0.12717366 0.0051168259 1.5434126
-0.13762994 0.0051092636 1.5405164
-0.14862189 0.005121245 1.5435231
-0.17009608 0.0051253377 1.5433383
-0.12692967 -0.0055325264 1.5404209
-0.13754179 -0.0055314242 1.5395188
-0.14862184 -0.0055479468 1.5435216
-0.15884747 -0.0055324985 1.5384921
-0.16987906 -0.0055452986 1.5413487
-0.1269276 -0.016171798 1.5403471
-0.13833253 -0.016261796 1.5484093
-0.14928374 -0.016289365 1.5504154
-0.15955672 -0.016244186 1.5453814
-0.17139502 -0.016354041 1.5551912
-0.12631822 0.068612099 1.531937
-0.13731965 0.068819165 1.5360148
-0.14790812 0.068804383 1.5350418
-0.15930283 0.069141515 1.5419475
-0.16982254 0.06908039 1.5398314
-0.1267368 0.058216088 1.5373491
-0.13733281 0.058204502 1.5364481
-0.14792226 0.058191989 1.535475
-0.15840299 0.058141246 1.5334357
-0.16940491 0.058276169 1.5362926
-0.12682821 0.047627054 1.5387061
-0.13690327 0.047434419 1.5318308
-0.14764941 0.047485258 1.532851
-0.15902568 0.047718387 1.5397624
-0.16985223 0.047767635 1.5406284
-0.126755 0.036974669 1.5379984
-0.13691203 0.036848743 1.5321184
-0.14803837 0.036983054 1.5371194
-0.158324 0.036903415 1.5330898
-0.16942912 0.037012793 1.5369425
-0.12684238 0.026367934 1.5392112
-0.13744719 0.026362676 1.5383095
-0.14804544 0.026357008 1.5373355
-0.1587383 0.026367811 1.5372839
-0.16976261 0.026428863 1.5401407
-0.084315978 0.015736178 1.5412387
-0.09475293 0.015703764 1.5376327
-0.10541528 0.015711473 1.5379479
-0.11601166 0.015708836 1.5371923
-0.084533647 0.0051168222 1.5453039
-0.094693542 0.0050899419 1.5367057
-0.10568777 0.0051088058 1.5420097
-0.11623702 0.0051046768 1.5402551
-0.084155031 -0.0055183303 1.5383128
-0.095606953 -0.0055672252 1.5516764
-0.10629708 -0.0055663809 1.5509875
-0.11660954 -0.0055477228 1.5452397
-0.084424078 -0.016182134 1.5432314
-0.094996423 -0.016169572 1.541621
-0.10629534 -0.016270753 1.550913
-0.11705469 -0.016278386 1.5511483
-0.084613383 0.069141857 1.5457805
-0.095270492 0.069132484 1.545167
-0.10571998 0.068989508 1.5414903
-0.11612359 0.068845481 1.537744
-0.084026732 0.05806642 1.5352398
-0.10539169 0.058161806 1.5369397
-0.11635821 0.058338821 1.5411671
-0.084303848 0.047626916 1.5405902
-0.094678424 0.047498275 1.535988
-0.10553552 0.04761323 1.5392948
-0.11584601 0.047483113 1.5345516
-0.085066356 0.037330538 1.5548545
-0.094623595 0.036874618 1.535278
-0.10635466 0.037272356 1.5515525
-0.11592792 0.036910292 1.5358363
-0.085124515 0.026621565 1.5560709
-0.094749928 0.026313556 1.5374897
-0.10561503 0.026377197 1.5407971
-0.11630601 0.026389681 1.5410374
-0.030947067 0.015631994 1.5322117
-0.031267419 -0.0055491324 1.5482774
-0.041856125 -0.0055381819 1.5450288
-0.052267339 -0.0055129519 1.5377109
-0.062661462 -0.0054947333 1.5323222
-0.073598877 -0.005522538 1.5398496
-0.031266905 -0.016220337 1.5482032
-0.042016312 -0.016250549 1.5509522
-0.052401021 -0.016156059 1.5416348
-0.063064948 -0.016165011 1.5422399
-0.073692203 -0.016163336 1.5417733
-0.041761626 0.068858877 1.5405171
-0.0311225 0.047586638 1.5405614
-0.031164479 0.037014484 1.5428488
-0.03116598 0.026379416 1.5430652
-0.23365271 0.15427688 1.5294316
-0.23347755 0.18610071 1.5259483
-0.23517647 0.11238714 1.5419379
-0.24659212 0.11270326 1.5452237
-0.26098698 0.1142977 1.5661405
-0.23402171 0.10116401 1.5347743
-0.24491808 0.10125705 1.5351133
-0.26135266 0.10353631 1.5688523
-0.2339059 0.090447903 1.5344412
-0.24495266 0.090588719 1.5357676
-0.25992745 0.09210971 1.5606563
-0.23453128 0.0799952 1.5389718
-0.24451621 0.07976371 1.5333897
-0.25979751 0.081207111 1.5602623
-0.25982606 0.070358276 1.5607793
-0.23434187 0.16541781 1.5332594
-0.24603043 0.16609471 1.5385001
-0.24624363 0.1554997 1.5405796
-0.26143226 0.15819223 1.566355
-0.2340017 0.1438369 1.5324172
-0.24489723 0.14396925 1.5327518
-0.26132706 0.14720808 1.5664147
-0.23538934 0.13395621 1.5422291
-0.24634761 0.13407844 1.5425552
-0.26089308 0.13606128 1.5644325
-0.23454019 0.12277801 1.5371917
-0.24608263 0.12320232 1.541464
-0.26077965 0.12510452 1.5643401
-0.23497793 0.20872642 1.534045
-0.24793738 0.21063326 1.5470906
-0.23475008 0.19781953 1.5334709
-0.24614581 0.19837661 1.5367322
-0.24574845 0.18733901 1.5351071
-0.23532452 0.17684217 1.5389721
-0.24612451 0.17689195 1.538312
-0.26477823 0.17128156 1.585843
-0.23713359 0.22145447 1.5472713
-0.24770515 0.22123866 1.5446386
-0.22611293 0.24369825 1.6252583
-0.23695743 0.24318422 1.6207398
-0.24804765 0.24295782 1.6181066
-0.26237336 0.24578194 1.635918
-0.19032818 0.11124595 1.5299544
-0.21183798 0.11139299 1.5301782
-0.20124072 0.15393376 1.5289547
-0.21180668 0.15388666 1.5275457
-0.12614155 0.079089612 1.529442
-0.13713622 0.15357563 1.5299444
-0.15837988 0.15360622 1.5289189
-0.16891056 0.13232921 1.5287629
-0.16872597 0.12159287 1.5276475
-0.19095957 0.21811782 1.5276033
-0.18041499 0.20758913 1.5303222
-0.19088666 0.18609588 1.5297714
-0.19081585 0.1753846 1.5300184
-0.20152828 0.17544566 1.5296659
-0.21197425 0.17528029 1.5272707
-0.14803381 0.21764053 1.5273063
-0.15811804 0.21689603 1.521335
-0.16909565 0.19616373 1.5259941
-0.14778805 0.18545121 1.5274829
-0.15856418 0.1856465 1.5284139
-0.039997485 0.10665996 1.4732479
-0.030281061 0.10830905 1.4964226
-0.030254228 0.077236056 1.4963259
-0.04081887 0.077690892 1.5050693
-0.050798275 0.077073254 1.4927778
-0.030928811 0.13173772 1.5276779
-0.041402098 0.13147536 1.5244428
-0.11622111 0.2177684 1.5300106
-0.07351353 0.18542805 1.5307865
-0.18022342 0.11156183 1.5351799
-0.20204283 0.11185469 1.5375222
-0.22367512 0.11199789 1.5375825
-0.18048233 0.1010616 1.5378873
-0.19121191 0.10109812 1.5376103
-0.20258959 0.10145535 1.5422072
-0.21281965 0.10123085 1.5378227
-0.22328369 0.10113376 1.535347
-0.17993213 0.090125509 1.5335821
-0.19111721 0.090388976 1.5372727
-0.20184603 0.090420224 1.5369228
-0.21271442 0.090507708 1.537488
-0.22359981 0.09059374 1.5379769
-0.18018539 0.079609409 1.536145
-0.19053152 0.079485573 1.532897
-0.20200031 0.079818428 1.5384939
-0.21206374 0.079590432 1.5331215
-0.22320122 0.079768069 1.5355929
-0.18107377 0.16556542 1.5393591
-0.19122928 0.16509925 1.5341396
-0.20247884 0.16557701 1.5377295
-0.21256867 0.16510603 1.532371
-0.22373107 0.16547334 1.5348219
-0.18065636 0.15451294 1.5364984
-0.19127446 0.15447043 1.5352298
-0.22321531 0.15442705 1.5319744
-0.18012083 0.14341578 1.5325707
-0.19119485 0.14374271 1.535259
-0.20269983 0.14434202 1.5408307
-0.21334237 0.14429782 1.5394115
-0.22369069 0.14406839 1.5359488
-0.1807334 0.1332282 1.5384614
-0.19111219 0.13302179 1.5352144
-0.20132628 0.13272861 1.5309103
-0.2125736 0.13311185 1.5344366
-0.22373639 0.13340805 1.5368952
-0.18019204 0.12218575 1.5343826
-0.1907827 0.12215202 1.5331171
-0.20162174 0.12227247 1.5337567
-0.21396802 0.12324905 1.5451856
-0.2236364 0.12266348 1.536782
-0.12665589 0.11126186 1.5344579
-0.13724525 0.11123978 1.5335578
-0.14782807 0.11121596 1.5325853
-0.15901349 0.11161834 1.5374942
-0.16973087 0.11166225 1.537365
-0.12683862 0.10079049 1.5371702
-0.13770735 0.10096413 1.5392507
-0.14842062 0.10100701 1.5392683
-0.15903878 0.10098379 1.5382196
-0.1699746 0.10115252 1.5400743
-0.1269381 0.090229288 1.5388167
-0.13763906 0.090269104 1.5389088
-0.14815731 0.09019199 1.5369395
-0.1589599 0.090286687 1.537879
-0.16989048 0.090437643 1.5397358
-0.13712817 0.079328619 1.5335195
-0.14770189 0.079311594 1.5325478
-0.15837023 0.079344258 1.5324976
-0.16969521 0.079681143 1.5383308
-0.12709317 0.16491218 1.5366977
-0.13771921 0.16487965 1.5357944
-0.14824404 0.16473927 1.5338286
-0.15874831 0.16459641 1.5317919
-0.16966464 0.16487187 1.5336385
-0.12704223 0.15419714 1.5367948
-0.14818452 0.15403531 1.5339258
-0.16981314 0.15435623 1.5357163
-0.1270705 0.14358011 1.5378106
-0.13769458 0.14355169 1.5369072
-0.14821741 0.14342935 1.5349405
-0.15902425 0.14357987 1.5358742
-0.1701757 0.14400306 1.5397027
-0.12709677 0.13295625 1.5387537
-0.13728303 0.13250522 1.5328879
-0.14853235 0.13307135 1.5388583
-0.15875232 0.13270122 1.5338439
-0.1266337 0.12185709 1.5336628
-0.13730924 0.12191109 1.5337559
-0.14837104 0.12227567 1.5377449
-0.15898573 0.12224758 1.5366966
-0.19199266 0.20858993 1.5369251
-0.20264207 0.20852974 1.535579
-0.21314692 0.2083343 1.533178
-0.22447984 0.20892821 1.5365928
-0.18092857 0.19749323 1.5356438
-0.19180639 0.19769007 1.5363425
-0.20437223 0.19951394 1.5497539
-0.21307497 0.1975728 1.5335803
-0.22426245 0.19801103 1.536018
-0.18097974 0.18685921 1.5369551
-0.20250247 0.18699121 1.5363096
-0.21259403 0.18645979 1.5309572
-0.22361559 0.1867559 1.5324187
-0.18102813 0.17621642 1.5381933
-0.2242431 0.17656602 1.5375909
-0.18173704 0.21984494 1.5406733
-0.20334905 0.21999943 1.5400116
-0.21375605 0.21965501 1.5366257
-0.22483549 0.2200015 1.5380714
-0.21496095 0.24391766 1.6277434
-0.12764192 0.2191204 1.5390512
-0.1379628 0.21852116 1.5341986
-0.16985713 0.21837254 1.5310485
-0.12711465 0.20756027 1.5335946
-0.13783054 0.2076519 1.5336785
-0.14883734 0.20813723 1.5366485
-0.15918161 0.20769311 1.532639
-0.17001858 0.20790726 1.5334874
-0.12731497 0.1972155 1.5369519
-0.13752033 0.1965488 1.5311062
-0.14859793 0.19713497 1.5350697
-0.15943202 0.19734122 1.5359935
-0.12727009 0.18647788 1.5372715
-0.13782312 0.18632239 1.5353782
-0.16990106 0.18643257 1.5342052
-0.12714206 0.17563297 1.5365268
-0.13759641 0.17537427 1.5336436
-0.14811185 0.17522494 1.5316795
-0.15952 0.17608105 1.5385411
-0.17005481 0.17592615 1.5364287
-0.20390712 0.24427915 1.6311352
-0.084405191 0.11154686 1.5403237
-0.094610237 0.11103196 1.5327427
-0.10566253 0.11151496 1.5390272
-0.11643274 0.1116391 1.5402594
-0.084202513 0.10066079 1.5370628
-0.094929628 0.10077637 1.5384443
-0.10547643 0.10069656 1.5367649
-0.11622795 0.1008089 1.5379993
-0.084484927 0.090344556 1.5426979
-0.094760716 0.089985564 1.5361062
-0.10549163 0.090087533 1.5374159
-0.11617021 0.090130247 1.5376554
-0.084225468 0.07944598 1.5382918
-0.094651118 0.079282254 1.5346904
-0.10523443 0.079270273 1.5340086
-0.11618505 0.079511851 1.538234
-0.084371656 0.16470028 1.5366063
-0.094694555 0.16415137 1.5310317
-0.10555313 0.1645481 1.534318
-0.11660979 0.16515277 1.5395118
-0.084337831 0.15399896 1.5367005
-0.09471716 0.15358396 1.5321156
-0.10537554 0.15365942 1.5324261
-0.11641444 0.15422516 1.5376251
-0.084518671 0.1436711 1.5406978
-0.095042326 0.14346816 1.5380968
-0.10533143 0.1429877 1.5324448
-0.11599394 0.14305568 1.5326831
-0.084428176 0.1328706 1.539652
-0.095062032 0.13285267 1.5390395
-0.10602946 0.1332576 1.5433252
-0.11639003 0.13289551 1.5385909
-0.084066175 0.12169986 1.5335537
-0.094593607 0.12160524 1.5319492
-0.10584685 0.1223688 1.541214
-0.11648675 0.12234841 1.5404556
-0.052389283 0.11136709 1.5387344
-0.063050829 0.11142878 1.5393372
-0.073581278 0.11127444 1.5368782
-0.03148457 0.10186817 1.556989
-0.041879501 0.10102233 1.5437695
-0.052901827 0.10172605 1.5544182
-0.063182205 0.10100631 1.5430526
-0.073687546 0.10080203 1.5395948
-0.031229382 0.090384014 1.544672
-0.04177836 0.090147719 1.5404304
-0.053211998 0.091528967 1.5640554
-0.063070044 0.090191238 1.5407128
-0.073745422 0.090239726 1.5412436
-0.063037701 0.07951469 1.5402943
-0.073660381 0.079506472 1.5398279
-0.031127544 0.1644554 1.5355949
-0.041641939 0.16402471 1.5313699
-0.05250271 0.16485637 1.5390007
-0.063066125 0.16463131 1.5366189
-0.07374084 0.16471982 1.5371459
-0.031055167 0.15347397 1.5327011
-0.041758988 0.15386008 1.5364321
-0.052414548 0.15394779 1.5371057
-0.063121602 0.15413167 1.5387005
-0.073805667 0.15421443 1.5392274
-0.031082081 0.14299875 1.5347077
-0.041607685 0.14271542 1.5314734
-0.052325517 0.14307261 1.5351341
-0.063216493 0.14370295 1.5417057
-0.073633343 0.1432291 1.5362648
-0.052269209 0.13231638 1.5340825
-0.063108429 0.13281505 1.5396632
-0.07341259 0.13220623 1.5322295
-0.031094527 0.1218311 1.5365148
-0.04189219 0.12237211 1.5432425
-0.052279253 0.1217375 1.5349491
-0.062797263 0.12157042 1.5325642
-0.073521115 0.12179256 1.535087
-0.095166527 0.21825428 1.5344168
-0.1058752 0.21836096 1.5347192
-0.084331892 0.20716085 1.5325239
-0.095135905 0.2075305 1.5348804
-0.10563865 0.2072347 1.5322173
-0.11648065 0.20759773 1.5344255
-0.084411219 0.19671115 1.5348918
-0.094921589 0.19643347 1.532299
-0.10607549 0.19740941 1.5395335
-0.11703578 0.19787936 1.5427307
-0.084327415 0.18588188 1.5342147
-0.095799133 0.18752171 1.5474776
-0.10597066 0.18654253 1.5388629
-0.11662313 0.18651165 1.5381033
-0.084620029 0.17585599 1.5404079
-0.09485276 0.17504744 1.5328513
-0.10559388 0.17524545 1.5341508
-0.11620846 0.17521644 1.5333942
-0.085329413 0.22037156 1.5498618
-0.063580848 0.21958442 1.5449426
-0.07401251 0.21872669 1.5385376
-0.031152694 0.20711753 1.5335029
-0.041943129 0.2079013 1.5391991
-0.052544918 0.20762169 1.5368955
-0.063036352 0.20707388 1.5325392
-0.073753163 0.2073177 1.5340528
-0.031301655 0.19742472 1.541823
-0.041741855 0.19628228 1.5326476
-0.052627832 0.19727433 1.5402585
-0.063257053 0.19713159 1.5388721
-0.073728226 0.1966086 1.5344402
-0.031131124 0.18572423 1.5341994
-0.041780546 0.18583305 1.5349433
-0.052408032 0.18581994 1.534622
-0.063154072 0.18616074 1.5372044
-0.031179452 0.17537107 1.5374173
-0.041791849 0.17524928 1.5361749
-0.052590009 0.17579785 1.5408192
-0.063171156 0.17555827 1.5384383
-0.073957898 0.1758768 1.5409487
-0.042437594 0.22115061 1.5565526
-0.053399831 0.22183134 1.5611748
-0.032178923 0.22492294 1.5835367
-0.41313389 0.14465901 1.9760606
-0.34056589 0.15682702 1.9633913
-0.33994791 0.14290634 1.960483
-0.35432264 0.14320487 1.9630266
-0.33983186 0.1292261 1.9604279
-0.34163117 0.21213202 1.9662085
-0.34086597 0.19798395 1.9627057
-0.34144735 0.1846254 1.9669539
-0.34016404 0.17028672 1.9603112
-0.34334835 0.28206077 1.9704949
-0.13362867 0.26261154 1.7603191
-0.14542319 0.26183492 1.7544358
-0.15793326 0.26236713 1.7573441
-0.03896042 0.28562102 1.9192417
-0.052548509 0.28721166 1.9298085
-0.065244809 0.28427145 1.9096303
-0.094959885 0.30803725 1.9756763
-0.10875762 0.3083066 1.9769554
-0.081527434 0.33655843 1.9797708
-0.10904136 0.32286146 1.9807199
-0.040061925 0.30736923 1.9725795
-0.039559133 0.3440159 1.9432244
-0.053804595 0.34883994 1.9704763
-0.053852398 0.33544695 1.9737955
-0.067550592 0.33542359 1.9733814
-0.039987691 0.32044739 1.9674757
-0.053685859 0.32074907 1.9691298
-0.054351859 0.46302795 1.9757493
-0.026639925 0.48973271 1.9678552
0.26769489 -0.47935215 1.7051222
-0.0097980257 0.015592572 1.5284901
-0.019766789 0.015157972 1.4853933
-0.02012267 0.0050046309 1.5124593
-0.019104039 0.054243594 1.4344598
-0.019276747 0.044746034 1.4477891
-0.019106802 0.034451656 1.4350653
-0.019120889 0.024569865 1.4362662
-0.020313362 0.068202369 1.5259581
0.011279345 0.036684293 1.5291231
0.00073789805 0.036684632 1.5291641
0.00073697843 0.026110498 1.5273789
0.021949114 0.015693126 1.5383656
0.011389769 0.015754119 1.5444789
0.00073939015 0.015633076 1.5325208
0.021977711 0.0050963154 1.5404363
0.011382648 0.0051062712 1.5435501
0.00074179011 0.0050866655 1.5375913
-0.0098426025 0.0050800792 1.5355603
0.022076575 -0.0055457773 1.5474341
0.011411849 -0.0055459184 1.5475485
0.00074417813 -0.0055282279 1.54259
-0.0098933689 -0.005531738 1.5435588
-0.020491404 -0.0055209659 1.5404553
0.022076212 -0.016210528 1.5473601
0.011375154 -0.01615908 1.5424747
0.00074607646 -0.016200716 1.5465158
-0.0098932041 -0.01616949 1.5434848
-0.020517403 -0.016158743 1.5423809
0.022428589 -0.027304348 1.5722069
0.011615712 -0.027356625 1.5753224
0.00076324667 -0.02747724 1.5823636
-0.010197474 -0.027631802 1.5913301
-0.02142537 -0.027975045 1.6112183
0.022012666 0.06890928 1.5419207
0.011371511 0.068866819 1.5410357
0.00074345007 0.068823248 1.540078
-0.0098583167 0.068690173 1.5370498
0.022043029 0.058355518 1.544353
0.011306914 0.057908386 1.5324758
0.0007397015 0.057908922 1.532517
-0.0098783011 0.058207594 1.5404803
0.021945946 0.047496594 1.5377188
0.011329723 0.047436669 1.5358334
0.00074358162 0.047589932 1.5408722
-0.0098219914 0.047314517 1.5318457
0.021919111 0.03684957 1.5360075
-0.0098162768 0.036731865 1.5311327
0.02200491 0.026363416 1.5422215
0.011345598 0.026296396 1.538336
-0.0098294411 0.026211847 1.533347
0.064553007 0.015739482 1.5421835
0.054096028 0.015791381 1.5475844
0.043290563 0.015742058 1.5429193
0.032634992 0.015732866 1.5421786
0.064719655 0.0051178969 1.5462509
0.054062299 0.005118357 1.5466564
0.043402325 0.0051187347 1.5469888
0.032719295 0.0051157544 1.5462489
0.065216526 -0.0055868872 1.5582393
0.054062277 -0.0055448185 1.5466549
0.043402307 -0.0055452273 1.5469874
0.032656446 -0.0055313548 1.5432481
0.065091223 -0.016299585 1.5551671
0.05406139 -0.016207727 1.5465807
0.043373823 -0.016198549 1.5459136
0.032739695 -0.016209854 1.547173
0.06496489 -0.026970569 1.5520225
0.05450926 -0.02709333 1.5594239
0.043733384 -0.027078139 1.5587599
0.033262271 -0.027303213 1.5720167
0.064656481 0.069023773 1.5437342
0.053732894 0.06867642 1.5361514
0.043276668 0.068902463 1.5414753
0.032666396 0.068950616 1.5427331
0.064372927 0.058115967 1.5371797
0.053807244 0.058158565 1.5385816
0.043086506 0.058013331 1.5349166
0.03250201 0.058016665 1.5351746
0.064626507 0.047698021 1.5435321
0.054088216 0.047793973 1.5469333
0.043339841 0.047705818 1.5442687
0.032567449 0.047525186 1.5385321
0.064796261 0.037148468 1.5478165
0.053953357 0.037033115 1.5432268
0.043203801 0.03694088 1.5395614
0.032527655 0.036871783 1.5368215
0.064633749 0.026407234 1.5440377
0.053921364 0.026375774 1.5424439
0.043178111 0.026310042 1.5387776
0.032654896 0.026379237 1.5430347
0.11840025 0.015829517 1.549046
0.10799758 0.015872566 1.5538077
0.09623646 0.015703445 1.5375416
0.08607816 0.015786363 1.5461497
0.075083353 0.015717624 1.539709
0.11840212 0.005134 1.5491177
0.107656 0.0051315995 1.5488914
0.096732773 0.0051192967 1.5455973
0.085914403 0.0051101828 1.5432256
0.075373881 0.0051173544 1.5457731
0.11840208 -0.0055617644 1.5491161
0.10751865 -0.0055520735 1.5468948
0.096794583 -0.0055493824 1.5465939
0.086134523 -0.0055501489 1.5472178
0.075422078 -0.005547279 1.5467703
0.11870199 -0.016298709 1.5530303
0.10751688 -0.016228933 1.5468203
0.09691669 -0.016241798 1.5485156
0.086243175 -0.016244037 1.5491405
0.075565517 -0.016246021 1.5496926
0.11877359 -0.027037865 1.5538795
0.10785667 -0.026990913 1.5516607
0.09728463 -0.027029436 1.554356
