ply
format ascii 1.0
comment PCL generated
element vertex 1476
property float x
property float y
property float z
element camera 0
property float view_px
property float view_py
property float view_pz
property float x_axisx
property float x_axisy
property float x_axisz
property float y_axisx
property float y_axisy
property float y_axisz
property float z_axisx
property float z_axisy
property float z_axisz
property float focal
property float scalex
property float scaley
property float centerx
property float centery
property int viewportx
property int viewporty
property float k1
property float k2
end_header
0.2536259 0.090951674 2.0299292
0.23698524 0.08996281 2.00879
0.22534885 0.090868779 2.03022
0.20932615 0.0900089 2.0118349
0.28196314 0.076988481 2.0298202
0.26708931 0.076751456 2.0247602
0.25328118 0.076811373 2.0275264
0.23898287 0.07672096 2.0262294
0.22427629 0.076480068 2.020859
0.21139853 0.076872244 2.0322819
0.28321373 0.063218661 2.0392089
0.26827797 0.063024968 2.0341558
0.25453085 0.063104548 2.0379224
0.23923421 0.062786758 2.0286906
0.22516941 0.062772848 2.0292816
0.20946541 0.062269792 2.0138679
0.23769954 0.25733382 2.005461
0.28230515 0.24587417 2.0235162
0.26806253 0.24571235 2.0234253
0.25199422 0.24376644 2.008456
0.23915789 0.24490222 2.0190029
0.22520623 0.24496613 2.0205872
0.21011762 0.24371977 2.0112119
0.29635453 0.23179515 2.0231717
0.28347 0.23276466 2.0330203
0.26787508 0.23149355 2.0230834
0.25328866 0.23100156 2.0199327
0.23887394 0.23061766 2.0176654
0.2253757 0.23112585 2.0231981
0.20976429 0.22939059 2.0088735
0.28708372 0.22142786 2.0601728
0.26807189 0.21760638 2.0256011
0.2526159 0.21640816 2.0155401
0.22259283 0.21442053 1.9990278
0.28129104 0.20294447 2.0192461
0.26645115 0.20231849 2.0142107
0.25218448 0.20208259 2.0130186
0.2382946 0.20213865 2.0146916
0.22504899 0.20278223 2.0222044
0.19694313 0.20268211 2.023104
0.29627737 0.18955009 2.0255146
0.28217083 0.18951988 2.0265017
0.26663944 0.1884793 2.016531
0.25162613 0.18771008 2.009409
0.23857933 0.18840367 2.0180011
0.22477101 0.18854474 2.020571
0.20827362 0.18629922 1.9972943
0.29533622 0.17493105 2.0198572
0.28209218 0.17541164 2.0267596
0.26967457 0.17648348 2.0404916
0.25536263 0.17636561 2.0403061
0.23769985 0.17378412 2.011322
0.22274067 0.17298096 2.0029924
0.28200912 0.16130871 2.0269208
0.26842949 0.16159263 2.0317628
0.25221682 0.1602352 2.0157375
0.23797715 0.16004561 2.0144405
0.22420411 0.16016577 2.0170076
0.20999679 0.15997106 2.0155149
0.3880747 0.150241 2.0582566
0.3692973 0.14845559 2.035332
0.35578382 0.14872819 2.0407522
0.34139699 0.14864318 2.0411634
0.32827422 0.14912504 2.049355
0.3123576 0.14832389 2.0397129
0.3952626 0.13349093 2.0202894
0.38574934 0.13509068 2.0464807
0.36847079 0.13398944 2.0313859
0.35311791 0.13352849 2.0259855
0.34226727 0.13480246 2.0470519
0.32785574 0.13472362 2.0473671
0.31300631 0.13444953 2.0446229
0.29792333 0.13404433 2.0397971
0.38561985 0.12080004 2.0463724
0.37011403 0.12039003 2.0410948
0.35197672 0.1190572 2.0199623
0.33823064 0.11916065 2.0233009
0.3296254 0.12116276 2.0590839
0.31410012 0.12068735 2.0524011
0.29710644 0.11957589 2.0347352
0.3891556 0.10753178 2.0658004
0.37493539 0.10757644 2.0684068
0.35491318 0.10589357 2.0374565
0.34088773 0.1059344 2.03983
0.32684645 0.10597368 2.0421076
0.3127901 0.10601137 2.0442894
0.38442484 0.092023432 2.0409524
0.36967003 0.091885813 2.0395942
0.35512212 0.091790691 2.039115
0.34157881 0.09195812 2.0444467
0.32500198 0.091287985 2.0309424
0.31252459 0.091760784 2.0429888
0.29774958 0.091571823 2.0401294
0.38446075 0.077829555 2.041532
0.36935094 0.077638835 2.0382061
0.35549584 0.077707157 2.0416625
0.3411206 0.077662721 2.0420678
0.3278535 0.077877685 2.0492818
0.31315401 0.077756457 2.0475185
0.29706156 0.077261433 2.0357609
0.3962388 0.063240156 2.0275683
0.38467428 0.063662432 2.0429969
0.37167948 0.063871317 2.051476
0.35569382 0.063562401 2.043129
0.3421281 0.063678227 2.048466
0.32255042 0.062636621 2.016201
0.31362861 0.063663669 2.0509653
0.29980659 0.063746303 2.0550354
0.38198939 0.24666332 2.0194135
0.37014771 0.24818502 2.0336983
0.35388315 0.24674426 2.0234575
0.34038639 0.24719384 2.0287626
0.32730293 0.2479955 2.0369205
0.3124775 0.24749017 2.0341978
0.2967045 0.24615075 2.0244904
0.39603573 0.23251407 2.018394
0.38685444 0.23551397 2.0464435
0.366714 0.2318162 2.0157847
0.35448608 0.23302482 2.0280306
0.33835551 0.23166184 2.0176578
0.32629463 0.23308784 2.0316949
0.30896777 0.23071091 2.0122607
0.38713357 0.22138268 2.0489793
0.37280947 0.2213691 2.0505936
0.35389462 0.21851976 2.0256529
0.34137711 0.21954796 2.0368488
0.32653248 0.2191038 2.0342193
0.31039259 0.21771084 2.0226352
0.29857364 0.21936026 2.0394671
0.38410667 0.20546235 2.0338128
0.36777365 0.20427172 2.0236537
0.35703602 0.20621791 2.0447457
0.34162012 0.20551147 2.0392799
0.32723498 0.20539071 2.0395973
0.31031564 0.20359635 2.0230889
0.2989299 0.20543455 2.0428853
0.38327315 0.19085789 2.0302722
0.36997384 0.19130222 2.0367596
0.35439432 0.19055592 2.030405
0.3400622 0.19044618 2.0308106
0.32746315 0.19133958 2.0419335
0.31128249 0.19012636 2.0303369
0.38243333 0.17631212 2.0266294
0.36969519 0.17697726 2.0360553
0.35718626 0.17780957 2.0473659
0.34029454 0.1764386 2.0330448
0.32596409 0.17633434 2.0333505
0.31284419 0.17690513 2.0414367
0.38837525 0.16470446 2.0591426
0.37435979 0.16485046 2.0627251
0.36150411 0.16553921 2.0730894
0.34117493 0.1627208 2.0391178
0.32759127 0.1630147 2.0443509
0.31200394 0.162293 2.0366817
0.29811114 0.16242605 2.0397489
0.042044044 0.32156178 1.9743451
0.08371897 0.31004992 1.9890348
0.02859536 0.29672885 1.9946145
0.055904847 0.28131002 1.9841349
0.042296655 0.28216153 1.9904095
0.028492246 0.28189448 1.9886707
0.083472081 0.26788086 1.9870373
0.042184763 0.26767415 1.9863421
0.014718347 0.26795676 1.9887124
0.0009628784 0.26795921 1.9887658
0.070457384 0.43747517 1.9892095
0.056617998 0.41009805 1.9954263
0.042688504 0.40992108 1.9947857
0.014753657 0.36511895 1.9834732
0.19536421 0.32602364 1.9960052
0.18134022 0.32577425 1.9953243
0.13943283 0.31126621 1.9948717
0.19502431 0.29773441 1.9953419
0.1806695 0.29692286 1.9907135
0.12521754 0.29654613 1.9909412
0.12513573 0.28255573 1.9909407
0.11135415 0.28259403 1.9917473
0.15318008 0.26955274 1.9968556
0.11111501 0.26821822 1.9886805
0.084818952 0.35604408 2.0108082
0.070851669 0.35607517 2.0113389
0.056908682 0.35627365 2.0127594
0.042970281 0.3566395 2.0150692
0.00097603578 0.35528216 2.0076396
0.084852219 0.34220475 2.0131903
0.070776187 0.34173602 2.0107646
0.056433558 0.33943343 1.9974002
0.042591054 0.33961871 1.9987236
0.029140618 0.34461969 2.0285463
0.014910795 0.34113705 2.0079899
0.00097166531 0.33981013 2.0001554
0.084801763 0.32803065 2.0135045
0.070906222 0.32837838 2.0160089
0.057007801 0.32888049 2.0194051
0.028743813 0.32604113 2.0022242
0.014938235 0.32780385 2.0132315
0.00097869022 0.32828537 2.0162477
0.070690751 0.31343758 2.0112877
0.057056125 0.3151406 2.0225894
0.042601723 0.31195021 2.0021818
0.02879644 0.31272677 2.0073659
0.014820032 0.31135952 1.9986206
0.00097048201 0.31166786 2.0006511
0.084820673 0.30015627 2.016803
0.070405141 0.29828462 2.0044808
0.056356613 0.29743007 1.9989804
0.04255392 0.29773894 2.0012958
0.014817909 0.2974664 1.9997085
0.00097605423 0.29951355 2.0136127
0.084436126 0.28488508 2.008909
0.070462994 0.28463167 2.0074582
0.014866496 0.28454781 2.0076325
0.00097447442 0.28510749 2.0116477
0.070450827 0.27068692 2.0083625
0.056586981 0.27083907 2.0097864
0.028726587 0.27033541 2.0064046
0.043208696 0.45713976 2.0132835
0.029079325 0.45627877 2.0096285
0.015060664 0.45716903 2.0136812
0.00098337769 0.45629382 2.0098336
0.085579582 0.44382963 2.0179667
0.057776757 0.44688281 2.0326154
0.043209292 0.44307137 2.0153787
0.029051675 0.44181025 2.009764
0.015060873 0.44309977 2.0157762
0.00099144736 0.44587445 2.0285323
0.085538439 0.4295243 2.0189927
0.071383946 0.42914855 2.0175724
0.057280768 0.4289726 2.0170336
0.04300132 0.42693186 2.0075939
0.029374097 0.43252322 2.034255
0.014995634 0.42716581 2.0089679
0.00099239801 0.43212467 2.0325055
0.084961414 0.41262984 2.0071909
0.071382843 0.41506249 2.019474
0.029317651 0.41752896 2.0322597
0.014959116 0.41214505 2.0059564
0.00097625749 0.41114977 2.0011113
0.085287727 0.40016392 2.0168214
0.071483783 0.40155005 2.0242195
0.05736091 0.40138561 2.0236785
0.043311354 0.40179411 2.0259836
0.029260719 0.40258253 2.0301552
0.014929602 0.39737898 2.0038157
0.00098713941 0.40163052 2.025456
0.085036837 0.38497737 2.0126331
0.071239933 0.38612899 2.0190563
0.057468772 0.38802025 2.0293157
0.042955481 0.38450071 2.0109966
0.028838266 0.38283867 2.0024006
0.014907096 0.38284805 2.0025496
0.00098044903 0.38490182 2.0134115
0.084866814 0.37022632 2.0102978
0.070960425 0.3706179 2.0127954
0.057299726 0.37280032 2.0250318
0.042848635 0.36958706 2.0076718
0.028752122 0.36780512 1.9980799
0.00098038802 0.37087211 2.0150063
0.029058924 0.35769174 2.0212238
0.015064741 0.35873833 2.0272834
0.16892546 0.35660496 2.0105302
0.15525828 0.3573606 2.0155635
0.14064172 0.35586417 2.0077317
0.11274092 0.35596523 2.0094604
0.18260185 0.34201184 2.007787
0.16890955 0.34257719 2.0119331
0.15494342 0.34263921 2.0130379
0.14076507 0.34219757 2.011096
0.12637454 0.34108591 2.0051196
0.11278506 0.34212872 2.0118415
0.098724976 0.34183705 2.0105937
0.16807202 0.32695371 2.003401
0.15455087 0.32780987 2.0094221
0.14109145 0.32897997 2.0173228
0.12703791 0.32887 2.0172522
0.11271796 0.32795766 2.0121567
0.09871418 0.32783729 2.0118926
0.18238132 0.31369036 2.0083272
0.16878809 0.31436262 2.0134635
0.15483212 0.31441975 2.0145674
0.12640622 0.31329796 2.0085986
0.11253947 0.31349292 2.0104003
0.098509759 0.31322488 2.0091465
0.1683546 0.2996071 2.0096452
0.15375786 0.29834867 2.0018685
0.1403704 0.29941973 2.0097785
0.1123043 0.29892159 2.0075529
0.098591968 0.29954118 2.012224
0.19623508 0.28563577 2.0091543
0.18294828 0.28667036 2.0173497
0.16832823 0.28561416 2.0106549
0.15478644 0.28636199 2.0166929
0.13986941 0.28446141 2.003871
0.098576613 0.28555158 2.0132313
0.18202914 0.27130285 2.0083985
0.16780715 0.27082717 2.0056417
0.13977668 0.27039227 2.0037866
0.12591523 0.27043322 2.004693
0.098030865 0.27010494 2.0032516
0.1960687 0.25752315 2.0099001
0.18288305 0.25858298 2.0190949
0.15510754 0.25893298 2.0233784
0.11241087 0.25741678 2.0132461
0.12709326 0.45512572 2.0019975
0.18611321 0.44826663 2.033906
0.17174353 0.44792765 2.0331805
0.15567072 0.44268429 2.0099492
0.14292578 0.44680282 2.0294824
0.12905842 0.44793388 2.035285
0.11462603 0.44714105 2.0322149
0.099333301 0.4422932 2.0105038
0.18469904 0.43072897 2.0203505
0.17002897 0.429369 2.0147371
0.15724345 0.43295226 2.0324349
0.14272155 0.43199146 2.0285788
0.12918165 0.43411875 2.0392699
0.11347898 0.42860472 2.0137253
0.099524565 0.42906779 2.0164063
0.18611145 0.4197832 2.0378807
0.17059803 0.41667196 2.0234785
0.15649199 0.41674662 2.0245943
0.14149226 0.41421974 2.0129066
0.12739888 0.41408154 2.012846
0.11336778 0.41413668 2.0136676
0.099522971 0.41498417 2.0183079
0.18407103 0.40109751 2.0172431
0.17124683 0.4040688 2.0331187
0.15566255 0.40047607 2.01565
0.14169237 0.40073481 2.0176432
0.12776352 0.40118033 2.0205204
0.11511412 0.40625164 2.0468156
0.099615753 0.40128109 2.0220718
0.18353124 0.38587904 2.013083
0.16911326 0.38502347 2.0093915
0.15558024 0.38621008 2.0163758
0.14141279 0.38590115 2.0154293
0.12769622 0.38689008 2.0212491
0.11357772 0.38675544 2.0210912
0.099131927 0.38531059 2.0139678
0.18334252 0.37145454 2.0127289
0.16959333 0.37206566 2.0168734
0.1554205 0.37177372 2.0160205
0.14113088 0.37111688 2.0131078
0.12774998 0.37296802 2.0238411
0.11346136 0.37229958 2.0207357
0.099893048 0.37413982 2.0312874
0.18350533 0.35774422 2.016197
0.1274942 0.35816464 2.0214229
0.099741757 0.35946548 2.0298572
0.015018782 0.54011518 1.9942294
0.056890849 0.48196489 1.9948479
0.14100793 0.48281568 1.995653
0.086282052 0.54697436 2.0185711
0.071800128 0.54494476 2.0113907
0.057944316 0.54783732 2.0224514
0.043875396 0.54994333 2.0305226
0.029612817 0.55048394 2.0327046
0.0010033068 0.55154008 2.0367763
0.087724432 0.54166597 2.0551233
0.072081164 0.53286052 2.0218318
0.057922937 0.53340352 2.0242095
0.043942243 0.53646773 2.0361633
0.029532176 0.53471816 2.0296428
0.015337997 0.53726047 2.0394704
0.00099255017 0.53144729 2.0172741
0.086421713 0.51938468 2.0268173
0.07201919 0.51819742 2.0225155
0.057928182 0.5192188 2.026834
0.043759782 0.51998615 2.0300877
0.029646717 0.52247 2.0400288
0.015288867 0.52125084 2.0353365
0.001002565 0.52248716 2.0402379
0.086510316 0.505665 2.0312848
0.071716398 0.50187343 2.0163028
0.057547692 0.50166899 2.0157738
0.043431323 0.50193614 2.0170887
0.029607121 0.50746924 2.0396636
0.015116563 0.50124878 2.014576
0.00099318614 0.5034107 2.0233686
0.086515747 0.49144378 2.0337169
0.072029039 0.48985445 2.0274556
0.043226384 0.48548737 2.0097721
0.029189251 0.48620582 2.0129361
0.015117455 0.48714989 2.0169771
0.00099230034 0.4887858 2.0238392
0.086889312 0.47925124 2.0448084
0.071278162 0.470689 2.0083618
0.058104165 0.47796759 2.0399573
0.043373577 0.47301233 2.0188808
0.029232534 0.47280473 2.0181551
0.015118131 0.47304258 2.0192802
0.00099187274 0.47440541 2.0251791
0.086440712 0.46253628 2.036334
0.071417324 0.45752177 2.0144515
0.057417724 0.45821336 2.0178163
0.087473638 0.59776068 2.0385993
0.072420523 0.59250575 2.0209146
0.05868838 0.59813142 2.0405569
0.044085003 0.59565037 2.0322683
0.029823773 0.59762841 2.0392413
0.015229209 0.59038156 2.0144312
0.00099535601 0.58982807 2.0125661
0.085769929 0.57198805 2.0012996
0.072089761 0.57558078 2.0143366
0.057381403 0.57071251 1.9974695
0.043698732 0.57619715 2.0170507
0.029660989 0.58003742 2.0307686
0.015123323 0.57214272 2.0030222
0.0010002177 0.57841998 2.0252054
0.086067349 0.5597924 2.010937
0.072065137 0.56117016 2.0162928
0.057635665 0.5590803 2.0090282
0.043642469 0.56123948 2.0170829
0.029553404 0.56365657 2.0260069
0.015118072 0.55781507 2.0049541
0.0010022405 0.56527168 2.0319993
0.17256589 0.55015212 2.0267649
0.15844576 0.55076736 2.0298204
0.14408794 0.55059636 2.0298901
0.13053183 0.55378902 2.0423913
0.11544809 0.55048859 2.0306981
0.099771492 0.54302794 2.0034649
0.18799217 0.53909314 2.0408087
0.17388594 0.53995419 2.0449355
0.15794007 0.53474218 2.025816
0.14410323 0.53634459 2.0326364
0.13011785 0.53768665 2.0383992
0.11464383 0.53244752 2.0189528
0.10054466 0.53301471 2.02162
0.18809786 0.52500463 2.044441
0.17365813 0.52485913 2.0447104
0.15795434 0.5205217 2.0284524
0.14438829 0.52306718 2.0391507
0.1298852 0.52240491 2.0371854
0.11530767 0.52124214 2.0331848
0.10146043 0.52351874 2.0426357
0.1884656 0.51161134 2.0508778
0.17179842 0.50500488 2.0250256
0.15729386 0.50413615 2.0222778
0.14270005 0.50278044 2.0174921
0.12946667 0.50644749 2.0329518
0.11422666 0.50220114 2.0163386
0.10056128 0.5046556 2.026767
0.18777215 0.49536228 2.0456052
0.17213482 0.49173236 2.0313325
0.15767711 0.49112085 2.0295498
0.12904587 0.49057361 2.0285962
0.11559658 0.49389973 2.0430222
0.10094968 0.49232611 2.036963
0.186369 0.47740135 2.0324466
0.17328453 0.48066008 2.0472593
0.15671204 0.47395846 2.0192573
0.14285092 0.47494045 2.0241652
0.12856144 0.47455767 2.0231473
0.11472951 0.47597826 2.0298119
0.10004641 0.47377011 2.0208178
0.18558004 0.46118143 2.0259409
0.1728828 0.46522242 2.0446587
0.15753989 0.46223095 2.0321712
0.14305961 0.46142766 2.0293052
0.11484236 0.46221569 2.0339861
0.10062333 0.46226966 2.0347214
0.1878956 0.59632069 2.0291393
0.17395821 0.59782833 2.0351582
0.14308158 0.58937681 2.0076439
0.12925765 0.59113652 2.0143228
0.10149367 0.59546798 2.0302799
0.1893307 0.58638924 2.0475373
0.17227873 0.57778335 2.0181015
0.15780951 0.57706678 2.0163515
0.14337344 0.57634139 2.0145013
0.12988724 0.57969522 2.0269547
0.11558166 0.57977033 2.0277925
0.1013661 0.58038205 2.0304551
0.18636528 0.5629459 2.017894
0.17254534 0.56438202 2.023921
0.15753211 0.56182194 2.0154393
0.14386716 0.56403935 2.0241597
0.13063797 0.56864256 2.0414481
0.11581478 0.56658846 2.0345914
0.10147516 0.56665343 2.0353332
0.20955271 0.35430685 1.9948879
0.28424177 0.34669852 2.027997
0.26886976 0.34514594 2.0201116
0.2550889 0.34557709 2.0238554
0.24092235 0.3455056 2.0245686
0.22643138 0.34493104 2.022244
0.21259692 0.34534663 2.0257025
0.19700828 0.34276927 2.0114009
0.28380376 0.33202356 2.0264032
0.26935741 0.33164728 2.0253553
0.25604117 0.33269769 2.0330229
0.23962384 0.3296057 2.0151126
0.22629812 0.33064598 2.0225871
0.21257427 0.33120406 2.0270288
0.28390503 0.31799635 2.0286205
0.2694537 0.31763613 2.0275702
0.25564283 0.31803274 2.031322
0.23982547 0.31583348 2.0182955
0.2270333 0.31759238 2.030689
0.21193501 0.31614468 2.0223598
0.19848965 0.31713206 2.0296602
0.2840021 0.30395448 2.0307424
0.26993379 0.30404714 2.0326321
0.25487277 0.30297002 2.026572
0.23979206 0.3017419 2.0194201
0.22656623 0.30284029 2.0278914
0.21313296 0.30378881 2.0352933
0.28273433 0.28851023 2.022959
0.26614255 0.28582066 2.0052035
0.25446603 0.28840429 2.0246601
0.23836505 0.28598228 2.0086453
0.22544099 0.28730756 2.0190828
0.21136166 0.28723875 2.019588
0.28676948 0.27833936 2.0533531
0.26855421 0.27432811 2.0247958
0.25380996 0.27361479 2.0206788
0.23878732 0.27250019 2.0135026
0.22540261 0.27323231 2.0200102
0.21081403 0.27250552 2.0155847
0.19696574 0.27270034 2.017962
0.29633543 0.25990885 2.0207996
0.282498 0.2601178 2.0237565
0.26915157 0.26082444 2.0305541
0.25425342 0.26002237 2.0254509
0.22514246 0.25890687 2.0188682
0.21128649 0.25909591 2.0213435
0.28785726 0.45150712 2.0410302
0.27205139 0.44909173 2.031323
0.25822479 0.44985712 2.0360396
0.24203993 0.44636312 2.0212586
0.22694133 0.4445622 2.0141227
0.21297204 0.44488126 2.0165954
0.20135736 0.4505139 2.0432844
0.28623179 0.43469587 2.0314648
0.27179402 0.43441439 2.0314298
0.25370795 0.42794797 2.0021672
0.24388553 0.43547931 2.0388329
0.23030849 0.43682662 2.046284
0.21409255 0.43301541 2.0293159
0.20059699 0.43455559 2.0375457
0.28595653 0.42002985 2.0314722
0.2724345 0.42115211 2.0382326
0.2573671 0.41987738 2.0332372
0.24192047 0.41779825 2.024241
0.22737162 0.4171074 2.0219483
0.21419151 0.41900244 2.0322232
0.19897614 0.41690248 2.0229084
0.2851342 0.40461501 2.0274875
0.27191129 0.40608466 2.0361948
0.25748196 0.40581554 2.0360546
0.23971909 0.39995319 2.0075552
0.22866939 0.40525857 2.0354743
0.21234958 0.40130836 2.0164919
0.19906533 0.40294114 2.0257056
0.28824252 0.39466396 2.0516107
0.27228642 0.39236668 2.0408657
0.2568596 0.39061996 2.0329263
0.24132447 0.38849431 2.0229218
0.22724538 0.38859391 2.0245204
0.21152321 0.38571063 2.0103872
0.19724594 0.38523948 2.0088491
0.28211728 0.37222058 2.0094323
0.26827067 0.37251222 2.0122852
0.25525445 0.374053 2.0218773
0.24119414 0.37415475 2.023571
0.22679627 0.37371293 2.0222356
0.21242841 0.37326509 2.0207994
0.19847253 0.37352902 2.02318
0.28358862 0.36003184 2.0216808
0.27121845 0.36238313 2.0362628
0.25462297 0.3590368 2.0185175
0.24117573 0.35999757 2.0250981
0.22601679 0.35836399 2.016906
0.19778985 0.35818666 2.0178382
0.38533166 0.34846401 2.0275774
0.37107199 0.34844047 2.0291889
0.3557924 0.3474192 2.0248725
0.34254313 0.34837791 2.0321162
0.3259348 0.34585544 2.0188253
0.3144536 0.34879133 2.0375733
0.29759634 0.34575984 2.0211303
0.38254744 0.33181438 2.0143833
0.37261802 0.33559924 2.0392909
0.35660148 0.33398506 2.031086
0.34201846 0.33363503 2.0305502
0.32808441 0.33391517 2.0338109
0.31232959 0.33228365 2.0252662
0.29813474 0.33223563 2.0263727
0.38688964 0.32128853 2.0389407
0.3706347 0.31959608 2.0298622
0.35604951 0.31926584 2.0294223
0.34197685 0.31938684 2.0318038
0.32820097 0.31980747 2.0360413
0.31259015 0.31839728 2.0284629
0.29866904 0.318656 2.0315256
0.3859224 0.30622882 2.0352509
0.37005499 0.30490154 2.028101
0.35532218 0.30444044 2.026679
0.34144145 0.30470142 2.0300317
0.3273755 0.30481261 2.0323136
0.31359351 0.3052102 2.0364554
0.29820004 0.30400276 2.0297358
0.38604701 0.29206666 2.0372925
0.37193826 0.29218632 2.0398788
0.358152 0.29257894 2.0443201
0.33878207 0.28825337 2.0154564
0.32795072 0.29113272 2.0372791
0.31040624 0.28804353 2.0169523
0.29872575 0.2903609 2.0347018
0.3847011 0.27683705 2.0314434
0.36781913 0.27484149 2.0184131
0.35503814 0.27587333 2.0277121
0.34263611 0.27729759 2.0398643
0.32633328 0.27555153 2.02845
0.31110096 0.27459216 2.0227895
0.29839024 0.27587295 2.0336919
0.38316539 0.26157731 2.0245085
0.36969173 0.26206005 2.030004
0.35785875 0.26379067 2.0451865
0.34126964 0.26201347 2.0329001
0.32392818 0.25947961 2.014606
0.30969685 0.25932032 2.0148072
0.38837743 0.45164844 2.0306544
0.37031764 0.44716537 2.0121078
0.35794008 0.44945976 2.0242143
0.34460184 0.4506883 2.0314283
0.32744792 0.44681671 2.0154021
0.31410623 0.44803193 2.0224187
0.3026737 0.45221496 2.0428834
0.39056519 0.43976462 2.0442674
0.37505904 0.4385041 2.0401464
0.35455942 0.43107191 2.0069916
0.34622499 0.43842709 2.043143
0.32946992 0.43529454 2.0299988
0.31395674 0.43359321 2.023495
0.29926103 0.43291306 2.0217168
0.38800639 0.42255005 2.0327775
0.37522972 0.42431048 2.0430915
0.36013156 0.42348143 2.0407782
0.34118655 0.41787213 2.0151603
0.32681805 0.4176245 2.0155065
0.31350458 0.41876376 2.0225325
0.30167517 0.42208758 2.0401378
0.38890716 0.40916437 2.0394716
0.36924124 0.40337518 2.0121479
0.35944489 0.40833631 2.0387876
0.34572405 0.40906617 2.0440962
0.33116862 0.40882897 2.0444696
0.31215295 0.40281457 2.0156434
0.2996738 0.40506458 2.0284064
0.38706443 0.39292693 2.0315955
0.3766107 0.39697981 2.0544918
0.35993689 0.39453796 2.0434625
0.34245875 0.39097497 2.0264888
0.32897297 0.39185867 2.0326588
0.31646267 0.39403695 2.0455391
0.30250865 0.39453909 2.0495949
0.38667566 0.37824795 2.0313289
0.37430218 0.38018885 2.0436006
0.35517591 0.37515196 2.0179999
0.34325072 0.37761864 2.0329907
0.32864147 0.3772184 2.0323708
0.31241643 0.37484315 2.0209508
0.300782 0.37801179 2.0395839
0.38481906 0.36221614 2.0232148
0.37251446 0.36408395 2.0354857
0.3573496 0.36319384 2.0321577
0.3433876 0.36350301 2.0355198
0.32799292 0.36225665 2.0300338
0.31433249 0.36289957 2.0351453
0.3019003 0.36508879 2.048938
0.29003 0.55607164 2.0400484
0.26115662 0.5561322 2.0428557
0.21674502 0.55344057 2.0362387
0.20193331 0.55226684 2.0328641
0.29100621 0.54344356 2.0495477
0.27607495 0.54259521 2.0476501
0.26118475 0.54173803 2.0456462
0.24783081 0.54415351 2.0560279
0.23196368 0.54100811 2.045171
0.21717432 0.54012573 2.0428569
0.20271322 0.53999239 2.0433276
0.29008779 0.52727473 2.0455317
0.2759724 0.52792215 2.0493855
0.26108748 0.52708757 2.047374
0.2445192 0.52255785 2.0308208
0.22971109 0.52146 2.0276256
0.21546762 0.52158326 2.0291455
0.20320661 0.52686411 2.0508249
0.28848833 0.50999331 2.0365839
0.27586582 0.51325232 2.051017
0.25453174 0.49976689 1.9979421
0.24246638 0.50396645 2.0160224
0.23167884 0.51151007 2.0475411
0.21741511 0.51187056 2.0500395
0.20208399 0.50959069 2.0418119
0.28945291 0.4972764 2.0457973
0.27485535 0.49695924 2.0457964
0.26002851 0.49616954 2.0437641
0.24121375 0.48723209 2.0078266
0.22659813 0.48619196 2.0045929
0.21549714 0.49305528 2.0341411
0.20257176 0.49642324 2.049114
0.28906104 0.48220053 2.0452852
0.27512607 0.48302162 2.0501068
0.25772482 0.4775112 2.0277731
0.24571626 0.48193213 2.047863
0.23094627 0.48115009 2.045619
0.21398105 0.47538733 2.0219581
0.19982646 0.47549331 2.0233703
0.28852919 0.46693715 2.0436971
0.27204722 0.46335053 2.0291765
0.25956222 0.46655136 2.0445373
0.24434178 0.46492219 2.0385094
0.22834957 0.46153048 2.0246155
0.21307115 0.45922706 2.0154524
0.19831134 0.45779341 2.0100613
0.28937411 0.59806877 2.0272653
0.27311572 0.59406614 2.0149159
0.21655622 0.59606856 2.0263765
0.2033655 0.59954536 2.0392747
0.29292166 0.59080565 2.0551252
0.27725521 0.58853132 2.0484936
0.26157522 0.58597487 2.0407927
0.24532883 0.58177578 2.0272441
0.23025808 0.58001542 2.0221782
0.21699375 0.58287376 2.0332711
0.20207126 0.58136785 2.028959
0.29147875 0.57337236 2.0476575
0.27716529 0.57380629 2.050555
0.26416263 0.57715237 2.0638762
0.24605048 0.56907284 2.0359566
0.2335321 0.57373041 2.0538743
0.2170231 0.56855172 2.0362458
0.20295078 0.56947392 2.0405571
0.27694303 0.55882382 2.0515542
0.24745886 0.55783349 2.0503449
0.23291227 0.5577141 2.0510261
0.35611811 0.54660654 1.9975225
0.34688818 0.55456001 2.0284803
0.33135414 0.55268782 2.0231743
0.31695017 0.55261642 2.024435
0.30509502 0.55719304 2.0427957
0.39334926 0.54461515 2.0427294
0.37564313 0.54005015 2.0272832
0.36608747 0.54730594 2.0564864
0.3464388 0.53944856 2.028405
0.33138803 0.53837991 2.0259473
0.31950551 0.54259485 2.0434628
0.30498591 0.54251897 2.0446391
0.39393046 0.53086758 2.0483074
0.37602639 0.52617741 2.0318789
0.36527964 0.53152782 2.0544484
0.34938231 0.52951676 2.0482922
0.32753822 0.51792789 2.0046966
0.31567445 0.5217855 2.0212557
0.303738 0.52588338 2.0387068
0.39468855 0.51730889 2.0547481
0.37728092 0.51346105 2.041157
0.36311707 0.51389694 2.0446415
0.34617138 0.51026845 2.0317531
0.32771587 0.50400347 2.0081868
0.31837142 0.51181787 2.041085
0.3043288 0.51246262 2.0451319
0.39125633 0.49835685 2.0391219
0.37449881 0.49530959 2.0283501
0.35841709 0.49294868 2.0203221
0.34683999 0.49684441 2.0380676
0.33239341 0.49678919 2.0394273
0.31705347 0.49533328 2.0349197
0.30264464 0.4952628 2.0360739
0.38690451 0.47852105 2.0185485
0.37135771 0.47691056 2.0134764
0.36130095 0.48250329 2.0389936
0.34718019 0.48290798 2.0423729
0.33194277 0.48172715 2.0389247
0.31796032 0.48234317 2.0430679
0.29996017 0.47663346 2.0201313
0.39529425 0.47429475 2.0649092
0.37435073 0.46639481 2.0320439
0.36029932 0.46679392 2.0355129
0.34654284 0.46762413 2.0408115
0.33273074 0.46844804 2.0460188
0.31856602 0.46882764 2.0492063
0.30352095 0.46788618 2.0465055
0.39097553 0.59910113 2.0195115
0.37563309 0.59767026 2.016469
0.36085775 0.59706348 2.0161514
0.30270931 0.59593654 2.0185883
0.39012524 0.58338648 2.017889
0.37656096 0.58470231 2.0242937
0.35721162 0.57678223 1.9983894
0.35003117 0.588669 2.0415812
0.33204654 0.58262873 2.0220773
0.31672364 0.58092314 2.0176415
0.30261186 0.58138251 2.0207093
0.38981286 0.56851918 2.0189884
0.37853363 0.57324547 2.0377262
0.36516178 0.57505345 2.0459616
0.34603983 0.56758016 2.0208402
0.33178031 0.5677802 2.0231562
0.32047072 0.57327521 2.0444295
0.30491653 0.57133865 2.0389404
0.39312625 0.55882895 2.0389581
0.37927869 0.5598253 2.0444465
0.53431976 -0.091509409 1.9937514
0.48994234 -0.050619185 2.0537841
0.47424203 -0.050478697 2.0502589
0.45666021 -0.050122939 2.037833
0.44179544 -0.050052099 2.0369916
0.43063089 -0.050409693 2.0536606
0.41157594 -0.049836468 2.032048
0.4017821 -0.050383747 2.0563996
0.48945144 -0.064934522 2.0514445
0.47622579 -0.065090396 2.0586331
0.46162355 -0.065061957 2.0598831
0.44197834 -0.064298064 2.0375788
0.43019661 -0.064665362 2.0513108
0.41509628 -0.064541936 2.0492983
0.39909244 -0.064264223 2.0422697
0.4878014 -0.079033241 2.0441453
0.48043868 -0.080194138 2.0766449
0.4568134 -0.078628272 2.03793
0.44530955 -0.079115137 2.0527222
0.42873737 -0.078703985 2.0439725
0.41545784 -0.078889795 2.0507684
0.40020299 -0.078700371 2.0476687
0.48890772 -0.093562573 2.048418
0.47167176 -0.092993617 2.0380747
0.46328074 -0.094187371 2.0666003
0.44295442 -0.092953376 2.0413904
0.42767897 -0.092732482 2.0384967
0.41364619 -0.092775099 2.0413671
0.4007363 -0.093081564 2.0500257
0.49230888 -0.10866339 2.0623071
0.47922397 -0.10897379 2.0704854
0.46040991 -0.10796013 2.0532353
0.44627124 -0.10801283 2.0563288
0.43190873 -0.10801305 2.0583477
0.41635838 -0.10770602 2.0543926
0.40449765 -0.10836557 2.0689497
0.49247855 -0.12315574 2.0624881
0.47648168 -0.12275846 2.0580168
0.46252236 -0.12287775 2.0621946
0.4472672 -0.12264936 2.0604224
0.43104059 -0.12213051 2.053652
0.41807881 -0.12253287 2.0624173
0.40273505 -0.12224089 2.0593412
0.49425197 -0.13810618 2.0693662
0.47350925 -0.13631105 2.0444868
0.45985505 -0.13650823 2.049618
0.44657412 -0.13683246 2.0566099
0.43138748 -0.13657492 2.054724
0.41802028 -0.13689549 2.0615325
0.39887428 -0.13527903 2.038866
0.49362892 0.050420605 2.0693631
0.47357196 0.04983465 2.0473495
0.45991689 0.049906831 2.0524848
0.44326913 0.049648475 2.0438468
0.42900214 0.049648441 2.0458443
0.41472918 0.049647704 2.0477433
0.39702475 0.049221493 2.0318773
0.48720166 0.035464089 2.0424151
0.47583085 0.035683762 2.0573857
0.4601551 0.035584223 2.0537522
0.44665578 0.035652 2.0597763
0.42413288 0.034980074 2.0226412
0.41356623 0.035281923 2.0421519
0.49251479 0.021394877 2.0649884
0.47763509 0.021375913 2.065377
0.46407631 0.021416726 2.0715163
0.44814229 0.021347022 2.0668137
0.43433198 0.021377208 2.0717807
0.41476119 0.021116197 2.0482259
0.40010098 0.021095499 2.0480628
0.49114004 0.0069195395 2.0592465
0.47495767 0.0068938951 2.0537777
0.46147853 0.006907112 2.0598989
0.44373074 0.0068552331 2.0463803
0.42720824 0.0068194624 2.0376115
0.40964451 0.0067640385 2.0228314
0.40124917 0.0068614474 2.0540485
0.48791477 -0.0074468516 2.0456212
0.46958831 -0.0073838681 2.0303845
0.45735416 -0.0074157403 2.0413501
0.44225779 -0.0074017616 2.039535
0.43026397 -0.0074405051 2.0522947
0.41654074 -0.0074509787 2.057143
0.48882857 -0.02180857 2.0494137
0.4731603 -0.021747876 2.0458789
0.45843229 -0.021727962 2.0461316
0.44540673 -0.02179005 2.0540991
0.4286274 -0.021666525 2.0443637
0.41042599 -0.021460142 2.0266528
0.4908866 -0.036308561 2.0579727
0.46934253 -0.035764795 2.0291152
0.46102259 -0.036226239 2.0576465
0.44644475 -0.036209829 2.058789
0.43105847 -0.03612458 2.0559134
0.41474777 -0.035953324 2.0480237
0.40218166 -0.036106043 2.0586576
0.59487855 -0.050985407 2.0510757
0.58264065 -0.051182762 2.0618277
0.55869526 -0.050335445 2.0300748
0.54034925 -0.049961325 2.0174167
0.53196204 -0.050512675 2.0423515
0.51960671 -0.050707348 2.0527215
0.50666165 -0.050853938 2.0610759
0.59124732 -0.065070271 2.0381913
0.58611476 -0.066115223 2.0739393
0.5705139 -0.066002592 2.0730717
0.53092861 -0.064736873 2.0380869
0.51860034 -0.064986758 2.0484488
0.50307596 -0.064838953 2.046114
0.58849978 -0.081071056 2.0820975
0.55335104 -0.07818009 2.0099127
0.54361296 -0.078821689 2.0290954
0.52138084 -0.077637471 2.0008316
0.51977837 -0.079544641 2.0528021
0.50185245 -0.078991279 2.0407684
0.5843972 -0.095090292 2.0670655
0.57068157 -0.095235281 2.0729346
0.53208995 -0.093585782 2.0418437
0.52046114 -0.094078325 2.0551167
0.50156921 -0.093248643 2.0392101
0.58136618 -0.10910586 2.0557895
0.56561762 -0.10886724 2.0539303
0.55377436 -0.10938749 2.0664303
0.53453428 -0.1084353 2.0508246
0.52064872 -0.10854664 2.0553937
0.50862223 -0.10906295 2.067631
0.5948844 -0.12340914 2.049058
0.57994622 -0.1233127 2.0501888
0.55975634 -0.12206612 2.0319517
0.55293679 -0.12374624 2.0627396
0.53521919 -0.1230123 2.0529349
0.52423728 -0.12382868 2.0691264
0.5009799 -0.12170936 2.0358026
0.58850175 -0.13981868 2.0800421
0.56705105 -0.13817056 2.0580223
0.55260426 -0.13818729 2.0608809
0.53564578 -0.13755992 2.0539782
0.52221733 -0.13782944 2.0604894
0.50848943 -0.13803303 2.0659444
0.59349692 0.050289046 2.0462856
0.57940203 0.050319966 2.0502908
0.55113673 0.050379764 2.0580091
0.5379684 0.050502609 2.0655947
0.52399272 0.050554369 2.0701878
0.50452995 0.050064605 2.0523486
0.57726812 0.035728149 2.0428829
0.56478053 0.035849947 2.0525637
0.55167544 0.03593792 2.0602362
0.53223771 0.035606988 2.0436254
0.51890069 0.035677169 2.0501194
0.50194609 0.03549552 2.0419559
0.59215862 0.021339092 2.0419707
0.57944554 0.021402078 2.0507803
0.56427068 0.021375028 2.0508301
0.55169213 0.021447491 2.0604322
0.53550684 0.021379871 2.0564051
0.51867282 0.021281879 2.0493441
0.50409436 0.021273488 2.0508926
0.59410352 0.0069435472 2.048794
0.58080435 0.0069575198 2.0556915
0.56533277 0.0069455192 2.054785
0.54682034 0.0068945475 2.0421669
0.53701627 0.0069535859 2.0623105
0.51673156 0.0068764272 2.0416811
0.50647199 0.0069320817 2.060704
0.59299695 -0.0075080753 2.0449481
0.58188421 -0.0075512365 2.0595407
0.56954753 -0.0075803185 2.0702178
0.55092967 -0.0075251325 2.0576282
0.53301227 -0.007476795 2.0468178
0.52306569 -0.007540687 2.0668955
0.50599778 -0.0075026331 2.0587587
0.59437072 -0.021997606 2.0496521
0.5845753 -0.02217501 2.0690677
0.56611413 -0.022024363 2.0575764
0.54783905 -0.021873226 2.0459306
0.53675753 -0.022008898 2.0612395
0.51964682 -0.02189802 2.0532172
0.50030202 -0.021683991 2.0353436
0.59352279 -0.036417715 2.0465701
0.58050734 -0.036508031 2.054426
0.56609678 -0.036512982 2.0573766
0.54807895 -0.036279414 2.0466983
0.53498936 -0.036368266 2.0542638
0.51987433 -0.036320541 2.0539882
0.50478923 -0.036272239 2.0536027
0.48865509 0.15031132 2.0451221
0.47209811 0.14960961 2.0377159
0.46065453 0.15053511 2.0525732
0.44167286 0.14897756 2.0332417
0.43234113 0.15067963 2.0586667
0.41520181 0.14968409 2.0469005
0.40261835 0.15031855 2.0575187
0.49218297 0.13695028 2.0606644
0.4779833 0.13702098 2.0639751
0.461593 0.13644849 2.0574477
0.44783828 0.13664334 2.0625002
0.4315936 0.13606615 2.0557382
0.41290331 0.13465169 2.0361335
0.49271134 0.12263557 2.063493
0.4762606 0.12212553 2.0570772
0.46144 0.12201475 2.0573552
0.44201255 0.12063945 2.036057
0.43246815 0.1219598 2.0605271
0.41374859 0.12069451 2.0409186
0.40026405 0.12092058 2.0466337
0.48425183 0.10631657 2.0283234
0.47184664 0.10672556 2.0383942
0.45455381 0.10602008 2.0269432
0.44017437 0.10597058 2.0280447
0.42702353 0.10622339 2.0349114
0.41025478 0.10556268 2.0240698
0.39917222 0.10637012 2.0415277
0.48568553 0.092375807 2.0348332
0.47525206 0.093124732 2.053679
0.45915967 0.092776932 2.0480971
0.44548017 0.092909977 2.0531356
0.42788437 0.092207916 2.0395
0.41423878 0.0923381 2.0443304
0.39655167 0.091544576 2.0284746
0.48734248 0.078386806 2.0422223
0.46746749 0.077463657 2.0201769
0.45768303 0.078207187 2.0418532
0.43879026 0.077392079 2.0224593
0.42629468 0.077688597 2.032254
0.41545931 0.078318484 2.0507901
0.39963347 0.078018978 2.0447474
0.48853138 0.064238988 2.0475714
0.47354293 0.064151004 2.0469606
0.45641604 0.06375882 2.036484
0.44471431 0.064123645 2.0502992
0.42917937 0.063941628 2.0464356
0.41332445 0.063697785 2.0404966
0.48424739 0.24844868 2.0200918
0.47518519 0.25117141 2.0446372
0.45519862 0.24810955 2.0216665
0.44646567 0.2511819 2.04899
0.42640477 0.24787351 2.0238013
0.41634345 0.25035036 2.0461304
0.40143886 0.24998763 2.0450244
0.48943031 0.23674239 2.04301
0.47687128 0.2376426 2.0530818
0.46419802 0.23854023 2.0630772
0.44658202 0.23687395 2.0506554
0.43159851 0.23653957 2.0497637
0.41428947 0.23486386 2.0370748
0.49207908 0.22358046 2.0552208
0.4760946 0.22285897 2.0507782
0.46019512 0.22213352 2.0462141
0.44375148 0.22109029 2.0386138
0.43170476 0.22224113 2.0513291
0.41635838 0.22171411 2.0483775
0.39689356 0.21887828 2.0238376
0.48851177 0.20762113 2.0412056
0.47419354 0.20763001 2.0435219
0.45856726 0.2070488 2.0399108
0.44574428 0.20773669 2.0488291
0.42509246 0.20470038 2.0206487
0.41645473 0.2074395 2.0498416
0.40629739 0.20958987 2.0731494
0.49344715 0.19523537 2.062921
0.47407177 0.19324127 2.0439198
0.46105006 0.19379348 2.0519669
0.44457957 0.19288492 2.0443573
0.43088037 0.19315825 2.0492926
0.41674158 0.19324657 2.0521848
0.40277395 0.19342336 2.0559573
0.48710272 0.17842802 2.0370581
0.47461307 0.17911015 2.047132
0.46005812 0.17903109 2.048378
0.44634971 0.17928696 2.053417
0.42913547 0.17810485 2.0417833
0.41662851 0.17886223 2.0524778
0.39715159 0.17657475 2.027885
0.49202487 0.16578947 2.0585985
0.46821904 0.16253875 2.0201287
0.46122718 0.16510414 2.0544164
0.44391 0.16401958 2.042897
0.43247122 0.16510712 2.0585656
0.41139123 0.16246207 2.027261
0.39722544 0.16245633 2.0290413
0.59250647 0.15119234 2.0395484
0.58059227 0.15184948 2.0512297
0.56696838 0.15208165 2.0570705
0.55021393 0.15146424 2.0512543
0.53531742 0.15133876 2.0520654
0.52116716 0.15142316 2.0556712
0.49681139 0.14846265 2.0175145
0.5901081 0.13621199 2.0319016
0.58175921 0.13763613 2.0560606
0.5725826 0.1389323 2.0782745
0.55286413 0.13767149 2.0618827
0.53189778 0.13602355 2.0395236
0.52100319 0.13693129 2.0556881
0.5051766 0.13655762 2.0524099
0.57563126 0.1218207 2.0348432
0.56265557 0.12212235 2.0425782
0.54318482 0.12099315 2.0261111
0.53422159 0.12220666 2.0491023
0.51547426 0.12118723 2.0343046
0.50145626 0.12125322 2.0377755
0.59302384 0.10800634 2.0431631
0.58487749 0.10918108 2.0683196
0.56799018 0.10874248 2.0626309
0.55069613 0.10820092 2.0548782
0.53253567 0.10745531 2.0431192
0.5143196 0.10665683 2.0302403
0.49820092 0.10626018 2.024971
0.58976841 0.093053363 2.0323312
0.57630163 0.093197815 2.0382349
0.56304657 0.093384795 2.045013
0.54921395 0.093483277 2.0497744
0.53259236 0.093099542 2.0438037
0.52289867 0.09393914 2.064831
0.50583589 0.093465015 2.0567052
0.59396958 0.079253837 2.0473223
0.57014489 0.07797344 2.0166924
0.56151748 0.078759082 2.0398173
0.54977757 0.079137988 2.052295
0.53489262 0.079072379 2.0530972
0.52172863 0.079264618 2.0605772
0.50611919 0.079085685 2.0582645
0.5929082 0.064675681 2.043972
0.57801718 0.064624876 2.0450857
0.55734569 0.063908637 2.0248787
0.55033296 0.064762108 2.0547183
0.53743529 0.064950421 2.0632653
0.52030689 0.064623691 2.0552523
0.50331426 0.064295679 2.0471025
0.57919753 0.25266722 2.0396399
0.55772018 0.24952522 2.0167341
0.54145527 0.24861151 2.0118611
0.53552133 0.25251994 2.0462682
0.52087778 0.25242433 2.047951
0.49725273 0.24784657 2.0128803
0.5915097 0.23735286 2.0306275
0.5744952 0.23627858 2.0240979
0.57021904 0.24052241 2.0634363
0.55261582 0.23922013 2.0547996
0.52991539 0.23558156 2.0258191
0.51882392 0.2370452 2.0409529
0.50187486 0.23583975 2.0328641
0.5835278 0.22543083 2.0572557
0.56089002 0.22223136 2.0304995
0.55633861 0.22621813 2.0698369
0.54353225 0.22697276 2.0793633
0.52235448 0.22417659 2.0560234
0.50791126 0.22419356 2.0585752
0.59509867 0.20981328 2.0451486
0.58069414 0.2098441 2.0482078
0.56049091 0.20772743 2.0300488
0.55800343 0.21223776 2.0771017
0.53416187 0.20865026 2.0442557
0.52296007 0.20993797 2.0594349
0.50163835 0.20712075 2.0339558
0.58108616 0.195484 2.0505502
0.54991394 0.1947161 2.0477085
0.53502476 0.19455451 2.0485229
0.51917869 0.19402635 2.045368
0.50292873 0.19331284 2.0401578
0.59478772 0.18073907 2.045903
0.58093035 0.18093368 2.0508766
0.56545573 0.18062168 2.0499904
0.55027872 0.18039086 2.0499516
0.53762984 0.18099871 2.0594482
0.5163613 0.17865789 2.035048
0.49947765 0.17774402 2.0269096
0.58076566 0.16638862 2.0511031
0.56529516 0.16610162 2.0502129
0.55243146 0.16658564 2.0588415
0.53847784 0.16675824 2.0635302
0.52059317 0.16568924 2.052655
0.50619853 0.16570175 2.0551918
0.59972 -0.095207512 2.0668662
0.5968225 0.12323003 2.0558071
0.59717339 0.22508514 2.0513098
0.59715736 0.19599912 2.0532303
0.59682935 0.16682744 2.0537939
0.49211338 0.35359371 2.0432675
0.48236558 0.35707021 2.0657969
0.46023163 0.35130876 2.0343976
0.44588497 0.35131207 2.0365279
0.42909831 0.3493292 2.0269759
0.41756496 0.3516337 2.0424225
0.39939794 0.34831718 2.0248992
0.47964466 0.34055209 2.0556808
0.46256059 0.33866307 2.0463822
0.44269535 0.33455065 2.0234394
0.43270376 0.3378745 2.0457399
0.41575581 0.33580834 2.0350978
0.39859664 0.33341825 2.0223835
0.49085659 0.32387608 2.0411713
0.47936606 0.3258588 2.0560308
0.46661416 0.32708102 2.0660069
0.44452694 0.3216275 2.0334027
0.42940563 0.32101896 2.0315523
0.41766825 0.32298535 2.0460601
0.40196028 0.32191193 2.0411024
0.49193829 0.31015074 2.047184
0.47662795 0.3095848 2.0456743
0.46049756 0.30843434 2.0401902
0.44886896 0.31032208 2.0548892
0.42508376 0.30365151 2.0123906
0.41113335 0.30378896 2.015245
0.39792305 0.30450264 2.0218873
0.49163568 0.29552978 2.0473258
0.47588801 0.29471385 2.0438793
0.46389028 0.29624185 2.0567446
0.44670585 0.29444924 2.0463114
0.43131223 0.29375708 2.0434959
0.42049643 0.29624245 2.0628936
0.39805132 0.29042011 2.0239177
0.49339277 0.28210425 2.0560451
0.47580969 0.28027743 2.0448766
0.46100163 0.28002223 2.0451739
0.44579339 0.27949971 2.0434279
0.43103799 0.27923584 2.0435116
0.41591036 0.27870435 2.0415473
0.39855325 0.27658778 2.0277972
0.46070239 0.26547495 2.0451002
0.44949028 0.26735055 2.0617726
0.43705595 0.26859978 2.0735321
0.41681775 0.264974 2.0472908
0.40151736 0.2643407 2.0442438
0.49295455 0.45548025 2.0334704
0.46404538 0.45550826 2.0381067
0.43389449 0.45424011 2.0366032
0.42199841 0.45698354 2.0510094
0.40482372 0.45400262 2.0394595
0.49524167 0.44305748 2.0451
0.48005879 0.44246125 2.0446224
0.46857178 0.44534051 2.0602655
0.45062479 0.44206777 2.0471621
0.4328832 0.43878555 2.0339117
0.42043483 0.44082749 2.0454512
0.4025563 0.43711856 2.0300279
0.49226016 0.42594162 2.0347354
0.48071924 0.42853355 2.0495062
0.46231401 0.42497721 2.0345747
0.44894713 0.42597243 2.0415146
0.43267429 0.42418489 2.0349426
0.42082095 0.42675623 2.0493731
0.40141547 0.42157927 2.0262332
0.49064246 0.41014087 2.0299613
0.47670406 0.4105393 2.0342212
0.46208432 0.41035742 2.0355144
0.44893432 0.41151112 2.0434165
0.43407845 0.4111259 2.0435529
0.41552275 0.40708944 2.0253117
0.40291595 0.40880117 2.0358047
0.49359733 0.39812317 2.0441837
0.47579268 0.39536694 2.0321908
0.46249497 0.39630076 2.039227
0.44828731 0.39648977 2.0423374
0.43770564 0.4000051 2.0626595
0.41569898 0.39296216 2.028043
0.40270874 0.39424428 2.0366189
0.47598612 0.38113439 2.0348425
0.46613798 0.38488731 2.0572453
0.44763324 0.381504 2.0411506
0.42430842 0.37365112 2.0008302
0.41547737 0.37846038 2.0287492
0.40495655 0.38201824 2.0498829
0.49032331 0.36669913 2.0340965
0.48196083 0.37134454 2.0623493
0.46372929 0.36843854 2.0482903
0.4536714 0.37204859 2.0706611
0.433395 0.36724001 2.0457518
0.4152495 0.36396828 2.0293541
0.4017078 0.36464256 2.0350411
0.59226537 0.35302311 2.0220978
0.5787316 0.35356507 2.027997
0.56435984 0.35360971 2.0309534
0.55227798 0.35512912 2.0423834
0.53832316 0.35549372 2.0470629
0.51195568 0.35736173 2.0628431
0.58700579 0.34397048 2.0588706
0.56351304 0.33865595 2.0295131
0.5537554 0.34153345 2.0495298
0.53926468 0.34156829 2.0523093
0.51942623 0.33812392 2.0339293
0.50647664 0.33909532 2.042223
0.4973385 0.34275049 2.0667624
0.58290356 0.32701957 2.0459518
0.57367939 0.33008227 2.0679948
0.55394632 0.32710046 2.0518138
0.53421605 0.32395953 2.0345056
0.52009147 0.32413802 2.0381064
0.50594413 0.32431209 2.0416105
0.59590656 0.31166485 2.0393517
0.58605516 0.3141619 2.0586121
0.57124329 0.31405959 2.0606599
0.55540907 0.31337506 2.0587788
0.53987902 0.31282985 2.0577364
0.52026397 0.30982178 2.0402713
0.50871009 0.31157953 2.0543458
0.592161 0.30265683 2.0816801
0.57142323 0.29953289 2.0627561
0.55148792 0.29667652 2.0455613
0.53406298 0.29505295 2.0368185
0.51921463 0.29480225 2.0375373
0.50934422 0.29744428 2.0583479
0.58641499 0.28508526 2.0627067
0.56529045 0.28184947 2.0418098
0.55677611 0.28489622 2.0666931
0.53671932 0.28204194 2.0483797
0.5208292 0.28127956 2.0452688
0.50595379 0.28103739 2.0458884
0.58739007 0.27090016 2.0674701
0.56466359 0.26708436 2.0408156
0.55078709 0.267364 2.045583
0.5301342 0.26428065 2.0243278
0.51709092 0.26492494 2.0317483
0.50633591 0.26681179 2.048722
0.52255589 0.45605934 2.0312722
0.50880831 0.45672336 2.0366933
0.58857745 0.4477126 2.0512774
0.57003957 0.44470969 2.0401604
0.55245173 0.44230974 2.0317237
0.5384894 0.44276124 2.0363996
0.52182937 0.4409582 2.0305471
0.50927895 0.44262403 2.0407164
0.58642453 0.43143991 2.045804
0.57212532 0.43169332 2.0497658
0.55703598 0.43134809 2.0507894
0.53723818 0.42723992 2.0336883
0.52327299 0.42767093 2.0382621
0.5092718 0.4280962 2.0427411
0.58560324 0.41622117 2.0449286
0.57106262 0.41627505 2.0479381
0.55038375 0.41173974 2.0280981
0.53747052 0.41292587 2.0365598
0.52301538 0.41296035 2.0392337
0.50784385 0.41241503 2.0389476
0.58638364 0.40214181 2.0496163
0.57234812 0.40256283 2.0545239
0.55061334 0.39744833 2.030864
0.53570455 0.39711797 2.0317266
0.5220232 0.39770445 2.0372443
0.50664312 0.39699325 2.0359919
0.55685532 0.37741312 2.0003123
0.55211258 0.38402793 2.0382833
0.54015243 0.38584402 2.0505767
0.52150726 0.38285318 2.0370517
0.50566971 0.38181168 2.0338788
0.49769309 0.38681874 2.063123
0.5964492 0.37003967 2.0347731
0.58657718 0.37299696 2.0539694
0.56677079 0.36962688 2.0379853
0.55616093 0.37223494 2.0551322
0.54335082 0.37347132 2.0646033
0.51880151 0.36648357 2.0281594
0.50539559 0.3671937 2.0345254
0.52724195 0.3578288 2.0631211
0.56329614 0.55478984 1.9968497
0.53443891 0.58360106 1.9965714
0.44939664 0.556575 2.0227039
0.43533149 0.55708534 2.0266736
0.48345184 0.5479219 2.0427332
0.46970353 0.54893953 2.0488222
0.45527071 0.5491969 2.051985
0.44283363 0.55195898 2.0645156
0.42264199 0.54491311 2.0399997
0.40451071 0.54011625 2.0238523
0.48393846 0.5338397 2.0473759
0.46974668 0.53434235 2.0515816
0.45697916 0.53654975 2.06232
0.43581733 0.5287202 2.0340974
0.42209488 0.52968776 2.0398767
0.40925637 0.53187299 2.0503213
0.48220274 0.51734364 2.0424659
0.46784809 0.5175944 2.0457139
0.45451498 0.51902777 2.0536063
0.43100676 0.50855082 2.0139117
0.42544445 0.519256 2.058671
0.40853414 0.51638025 2.0491436
0.49565285 0.50161761 2.0378776
0.48356235 0.50417995 2.0506909
0.46744666 0.50257444 2.0463567
0.44995669 0.49934047 2.0352492
0.43789446 0.50211513 2.0487437
0.42000473 0.49816874 2.0345328
0.40742812 0.50046754 2.045943
0.47981438 0.48576313 2.0370088
0.46639246 0.48689809 2.0440409
0.45248011 0.48757759 2.0490835
0.43569347 0.48510203 2.0406876
0.42080489 0.48464224 2.0407519
0.39876625 0.47562152 2.0043869
0.49477616 0.47168568 2.0388479
0.4758338 0.46734455 2.022223
0.46705315 0.47302425 2.0492234
0.43348396 0.46822619 2.0324967
0.42101353 0.47039977 2.0440145
0.40953782 0.47387922 2.0612028
0.48139039 0.45824528 2.0482128
0.45667955 0.46270591 2.072737
0.47620854 0.58291274 2.0038731
0.46760491 0.59022915 2.0314846
0.45115736 0.58779699 2.0252354
0.43562692 0.58643764 2.022625
0.42696792 0.59455323 2.0528941
0.40719128 0.58721423 2.0293324
0.48290172 0.57650322 2.0350404
0.46444884 0.57176304 2.0204291
0.45308781 0.57572931 2.0367424
0.44111964 0.57916218 2.0511105
0.42157426 0.57254058 2.0295198
0.40611643 0.5711962 2.0266786
0.48583487 0.56531376 2.0502236
0.46965379 0.56352603 2.0459607
0.42123401 0.55758816 2.0305474
0.40917525 0.56092143 2.0447502
0.53406924 0.55438322 2.0006344
0.587587 0.54960734 2.0311275
0.57820892 0.55467814 2.052819
0.55915439 0.55048877 2.0399125
0.53461552 0.54052848 2.0053167
0.52674216 0.54733294 2.0333056
0.51404941 0.54937476 2.0434356
0.49850717 0.54840183 2.0421994
0.58630198 0.53377336 2.029248
0.56704676 0.52945662 2.0154643
0.55920452 0.53584927 2.0426955
0.53936666 0.53078228 2.0258455
0.53402466 0.54009485 2.0642421
0.51691157 0.53769422 2.0574958
0.50425375 0.53992313 2.0685222
0.58794951 0.52060026 2.0375235
0.58170056 0.52825022 2.0705094
0.56331772 0.52499378 2.0603771
0.54312372 0.5198282 2.0425785
0.52924097 0.52058411 2.0481277
0.51929998 0.52537113 2.0696077
0.49904644 0.51969975 2.0495055
0.58718175 0.50526655 2.0372956
0.57286197 0.50556135 2.0412657
0.56157219 0.50861603 2.0564067
0.54712492 0.50889856 2.0601995
0.5280664 0.50478876 2.045984
0.50265753 0.49420112 2.0051694
0.58586943 0.48951608 2.0350819
0.57184315 0.49002585 2.0399809
0.55879796 0.49142522 2.0485482
0.5429337 0.49035403 2.0466669
0.53002363 0.49196544 2.0559959
0.50737643 0.48437312 2.0264699
0.49955836 0.49090743 2.056416
0.58481508 0.47404039 2.0336895
0.57081515 0.47453484 2.0385821
0.55932564 0.47719729 2.0528028
0.54518539 0.47768071 2.057523
0.52230728 0.47032279 2.028105
0.50856596 0.47100726 2.0335221
0.5858956 0.46029437 2.0397041
0.57265425 0.46140665 2.0474308
0.55729651 0.46082732 2.047524
0.5409736 0.45939711 2.0437229
0.58738196 0.59339213 2.0221653
0.57539672 0.59616232 2.0344853
0.51597339 0.59556901 2.0429211
0.50106066 0.59533131 2.0445328
0.59092826 0.58222741 2.0373082
0.57599407 0.58203858 2.0394492
0.56461549 0.58552724 2.0545139
0.54217291 0.57742077 2.0284929
0.53096128 0.58115762 2.0442994
0.51440316 0.57908857 2.0394628
0.50090069 0.58043915 2.0466838
0.59019756 0.56677818 2.0375321
