ply
format ascii 1.0
comment PCL generated
element vertex 1415
property float x
property float y
property float z
element camera 0
property float view_px
property float view_py
property float view_pz
property float x_axisx
property float x_axisy
property float x_axisz
property float y_axisx
property float y_axisy
property float y_axisz
property float z_axisx
property float z_axisy
property float z_axisz
property float focal
property float scalex
property float scaley
property float centerx
property float centery
property int viewportx
property int viewporty
property float k1
property float k2
end_header
0.063879244 -0.044350062 1.8299623
0.05139463 -0.044449385 1.8343524
0.16554089 -0.057248998 1.8353295
0.15282373 -0.057229735 1.8354198
0.13973559 -0.057055514 1.8304392
0.12720291 -0.057096012 1.8323467
0.11452683 -0.057073984 1.8321742
0.10163874 -0.056927744 1.8279223
0.089054964 -0.056934685 1.828573
0.076798081 -0.057187341 1.837127
0.063736774 -0.056822501 1.8256208
0.051530119 -0.05722753 1.8390015
0.1781536 -0.069893911 1.8337232
0.16499335 -0.069683462 1.8289238
0.15256469 -0.06977272 1.8319983
0.13987522 -0.069748051 1.8319998
0.12732993 -0.069797508 1.833908
0.1145176 -0.069695361 1.8317417
0.10185064 -0.069667324 1.8314822
0.089337036 -0.069751099 1.8341302
0.076750472 -0.069796123 1.8356954
0.064008258 -0.069689445 1.83318
0.051775806 -0.070221707 1.847558
0.14035313 0.18358752 1.8332119
0.10214408 0.18327717 1.8317212
0.089016207 0.18231331 1.8224354
0.076516204 0.18252967 1.8249882
0.064054385 0.18294041 1.8294454
0.051285524 0.18246062 1.8248656
0.17870477 0.17121117 1.8351243
0.16586159 0.17106465 1.8343167
0.15295555 0.17082363 1.832428
0.14053506 0.17113039 1.8364068
0.12717591 0.17024149 1.8273883
0.11481127 0.17063467 1.8321886
0.10167227 0.1698318 1.8239802
0.089565784 0.17077047 1.834577
0.076450616 0.16977838 1.8242009
0.063965105 0.17006901 1.8276651
0.051407915 0.17026511 1.8300492
0.19037588 0.15765704 1.8250754
0.17807148 0.1579483 1.8293066
0.16642956 0.15891673 1.8413949
0.15282284 0.15801403 1.8315639
0.14101639 0.15897788 1.8434925
0.12706512 0.15747499 1.8265189
0.11483505 0.15800905 1.8333094
0.10191324 0.15760566 1.8290755
0.089584388 0.15813488 1.8356991
0.07654921 0.15738626 1.8273073
0.06380567 0.15706018 1.8238037
0.051307667 0.15732679 1.8271838
0.17877571 0.1458668 1.8372875
0.1651268 0.14503874 1.8275414
0.15244114 0.14498962 1.8276312
0.13976182 0.14493825 1.8276342
0.12715803 0.14496273 1.8285447
0.1143628 0.14475031 1.8263842
0.10226267 0.14547409 1.8360803
0.089312546 0.14502241 1.8307602
0.076481186 0.14464653 1.8263463
0.063921578 0.14473768 1.8278214
0.051289789 0.14467005 1.8272178
0.19136839 0.1330817 1.8359841
0.17871119 0.13311259 1.8372464
0.16542266 0.13264193 1.8314682
0.15246786 0.13238309 1.8285775
0.14016333 0.13269308 1.8335532
0.12718037 0.13235857 1.8294908
0.11444469 0.13223603 1.8283244
0.10189573 0.13232562 1.8300583
0.089039169 0.13198456 1.8257288
0.076660141 0.13235562 1.8312763
0.064001955 0.13229603 1.8307594
0.051354326 0.13223429 1.8301561
0.17873962 0.12043016 1.8381112
0.16544899 0.12000437 1.83233
0.15249218 0.11977022 1.8294376
0.13980867 0.11972781 1.8294399
0.12774955 0.12026478 1.838315
0.114463 0.11963723 1.8291836
0.10213203 0.11997671 1.8349036
0.089005254 0.11934516 1.82559
0.076465547 0.11942235 1.8271513
0.064046785 0.11975618 1.8326166
0.051279318 0.11944183 1.8280228
0.19091326 0.10742833 1.8326617
0.17895685 0.10785747 1.8408771
0.16636284 0.1079386 1.8430492
0.15276073 0.10732491 1.8331966
0.13982879 0.1071137 1.830214
0.12708177 0.10701626 1.8291329
0.11429404 0.10685931 1.8269677
0.10198174 0.10716302 1.8326886
0.089066274 0.10682919 1.8273582
0.076559357 0.10695612 1.8299181
0.063917764 0.10690787 1.8293998
0.051425491 0.10714703 1.8337846
0.17907546 0.0952015 1.8425637
0.16522679 0.094559819 1.8308107
0.15269803 0.094629809 1.8328904
0.13992208 0.094545417 1.8318975
0.12730391 0.094561443 1.8328092
0.11455599 0.094473995 1.8316411
0.10171974 0.094283037 1.8283907
0.089077711 0.094243519 1.8280445
0.076403625 0.094151475 1.8266135
0.063925967 0.094312936 1.8300862
0.051376585 0.094421893 1.8324759
0.19075358 0.082022816 1.8319672
0.17909543 0.082483232 1.8431699
0.16640265 0.082501128 1.8443485
0.15287958 0.082076229 1.8354843
0.13993774 0.081914827 1.8324994
0.1277986 0.082237877 1.8403876
0.11463064 0.081897132 1.8332396
0.10200626 0.081908412 1.8339787
0.089280538 0.081830017 1.8326358
0.076536387 0.081706122 1.8302077
0.063794844 0.081536673 1.8266929
0.051299091 0.081675269 1.8300815
0.19149013 0.069632813 1.8394418
0.17815423 0.069387764 1.8337423
0.165172 0.069253497 1.8309333
0.15256524 0.069267444 1.8320172
0.13995118 0.069280304 1.8330153
0.12705582 0.069142632 1.829939
0.11470351 0.069302715 1.8347528
0.10179597 0.069125436 1.8305033
0.089385569 0.069283351 1.8351475
0.076585151 0.069141179 1.8317206
0.063973911 0.069147393 1.8322002
0.051276274 0.069040351 1.8295968
0.19150537 0.056930639 1.8398736
0.17903098 0.057004932 1.8431267
0.16616471 0.056956276 1.842314
0.15257742 0.056631926 1.8324467
0.14049052 0.056856185 1.8404213
0.12740923 0.056682602 1.835354
0.11477452 0.056691319 1.83618
0.10163905 0.056424197 1.8279378
0.089296296 0.05658384 1.8335804
0.076591313 0.056528725 1.8321494
0.06415195 0.056686588 1.8376232
0.051474739 0.056660209 1.8370188
0.19090176 0.044083524 1.8342521
0.17846732 0.044141211 1.8375018
0.16466139 0.043842554 1.8257315
0.15299843 0.044112273 1.8377717
0.14042403 0.04414418 1.8397691
0.12707411 0.04391443 1.8307105
0.11447267 0.043921195 1.8315347
0.10175562 0.043879788 1.8302764
0.089157373 0.043885142 1.8309277
0.076679021 0.043961 1.8344895
0.064121492 0.044012431 1.8369681
0.051394753 0.043944452 1.8343644
0.19174097 -0.0066161072 1.8427216
0.19255278 -0.032198571 1.850414
0.19285138 -0.045045543 1.8531342
0.19166912 0.17144664 1.8368334
0.19174512 0.14606732 1.8389996
0.19170652 0.12059578 1.8398268
0.19155313 0.095077515 1.8393118
-0.075476557 0.29885152 1.833077
-0.088430859 0.29961857 1.8374492
-0.10198732 0.3019751 1.8515881
0.038909018 0.28491044 1.8272983
0.026207997 0.2846165 1.8255442
0.013569274 0.28508186 1.8286445
0.00088485121 0.28416774 1.8227643
-0.011774943 0.28462416 1.8256919
-0.024396257 0.28415942 1.8226038
-0.037075199 0.28445405 1.8243703
-0.049859684 0.28520244 1.8290139
-0.062542252 0.28518251 1.8286303
-0.075423315 0.28592175 1.8330978
-0.087803759 0.28482375 1.8256299
-0.10132397 0.28723365 1.8407766
0.038818192 0.27160099 1.8242538
0.026203031 0.27190408 1.8264539
0.013552167 0.27205691 1.8275785
0.00088991784 0.2730816 1.834553
-0.011772713 0.27191144 1.8266013
-0.024562187 0.27336559 1.8363699
-0.037187681 0.27262497 1.8312135
-0.049850289 0.27246416 1.8299274
-0.062563971 0.27259105 1.830533
-0.07508675 0.27198368 1.8261092
-0.0880697 0.27297795 1.832471
-0.1016285 0.27528125 1.8476317
0.038747575 0.25848559 1.8221036
0.026183585 0.25905323 1.8262855
0.013542118 0.25919896 1.8274113
0.00088926143 0.26017624 1.8343922
-0.011801926 0.25989592 1.8323746
-0.024530975 0.26030788 1.8352213
-0.037000779 0.25862655 1.8231298
-0.049572885 0.25833398 1.8208544
-0.062383607 0.25915137 1.8264115
-0.074950412 0.25885063 1.823964
-0.087769136 0.25938118 1.8273662
-0.1016622 0.26255259 1.8494666
0.038801629 0.24620721 1.8258063
0.026177807 0.24634975 1.8270189
0.013531853 0.24635589 1.8271544
0.00088525767 0.24635814 1.8272035
-0.011755055 0.24622391 1.8261753
-0.024354942 0.24582079 1.8230788
-0.036972646 0.24581127 1.8228693
-0.049909383 0.24738798 1.834464
-0.062503971 0.2469731 1.8311085
-0.074974142 0.2462894 1.8256871
-0.087749772 0.24666168 1.8281024
-0.10120906 0.2486195 1.8423066
0.038855113 0.23389018 1.8294268
0.026129358 0.23327094 1.8246887
0.013528655 0.23365404 1.8277999
0.00088504842 0.23365617 1.8278493
-0.011752271 0.23352879 1.82682
-0.024427956 0.23390079 1.8296727
-0.037183173 0.23452047 1.8344222
-0.049576808 0.23312449 1.8232164
-0.062388636 0.23386249 1.8287841
-0.075480834 0.23522526 1.8392195
-0.087634765 0.23369272 1.8267694
-0.10156315 0.23668186 1.8499032
0.03865727 0.22010732 1.8210527
0.02616502 0.2209492 1.828223
0.013532529 0.2210737 1.8293513
0.00089054316 0.22238456 1.8403224
-0.01181261 0.22202606 1.8373061
-0.024408678 0.22106919 1.8292401
-0.037014328 0.22082266 1.8270448
-0.049644489 0.22081059 1.8267493
-0.062238734 0.22067605 1.8253752
-0.07501816 0.22113279 1.8288758
-0.087706968 0.22122912 1.8293127
-0.10045914 0.22144087 1.8306541
0.038876753 0.20869355 1.8324461
0.026158011 0.20825328 1.8286939
0.013499768 0.20792188 1.8258482
0.0008841118 0.20814818 1.8278847
-0.011796813 0.20904443 1.835797
-0.024362722 0.20802981 1.8267308
-0.037084199 0.20858274 1.831489
-0.049631167 0.20812254 1.8272194
-0.062758982 0.20979068 1.8417346
-0.075280637 0.20921162 1.8362987
-0.087683506 0.20851719 1.8297864
-0.10151165 0.2109599 1.8509741
0.038865764 0.19597469 1.8328327
0.025995517 0.1944014 1.8181398
0.013503212 0.19535512 1.827224
0.00088433741 0.19556774 1.8292619
-0.011780825 0.19609353 1.8341969
-0.024395226 0.19566736 1.8300958
-0.036953982 0.19523808 1.8259095
-0.049697351 0.19575444 1.8305844
-0.062372144 0.19584601 1.8311963
-0.075017191 0.19582903 1.8307276
-0.087894551 0.1963359 1.8351393
-0.10051185 0.19620726 1.8335032
0.077285394 0.28622341 1.8349994
0.064696506 0.28685954 1.839434
0.051911946 0.28672755 1.8388443
0.1785972 0.27265587 1.8259749
0.16611655 0.27300569 1.8291209
0.15351906 0.27320549 1.8311967
0.14090084 0.27340117 1.8331872
0.12764676 0.27227932 1.8262095
0.11492653 0.27217448 1.8260498
0.10276282 0.27352494 1.8356807
0.089751363 0.27268174 1.8304096
0.077105954 0.27285606 1.8319674
0.064270966 0.27229604 1.828495
0.051625643 0.27246171 1.8298793
0.1789427 0.26046532 1.830749
0.16617137 0.26038182 1.8309401
0.1534058 0.26029423 1.8310436
0.14049615 0.25992429 1.8290846
0.12762058 0.25955015 1.8270364
0.11490297 0.2594502 1.8268754
0.10290659 0.26115584 1.839481
0.089877263 0.26035175 1.8342052
0.077007726 0.25982186 1.8308172
0.064292312 0.25970551 1.8303096
0.051393714 0.25861025 1.8227862
0.19147235 0.24750379 1.8292466
0.17880781 0.24756056 1.8305097
0.1659573 0.2473488 1.8297119
0.15312608 0.24713311 1.8288251
0.14046523 0.24717829 1.8298266
0.12814003 0.24788165 1.8356857
0.11537091 0.24778676 1.8355274
0.10217094 0.2466283 1.8273643
0.089665309 0.24705528 1.8309879
0.076949537 0.24694851 1.8305659
0.064347163 0.24723534 1.833029
0.051631469 0.24712075 1.8324338
0.17886131 0.23492239 1.8321555
0.16653994 0.23547503 1.8372848
0.15218751 0.23300959 1.818604
0.14110948 0.23556493 1.8393837
0.12838395 0.23560436 1.8403029
0.11515887 0.23463468 1.8332142
0.10236634 0.23441519 1.8319753
0.089644216 0.23431765 1.8316396
0.076931432 0.23421638 1.8312168
0.06402161 0.23335697 1.8247578
0.051536266 0.23400262 1.8301101
0.19148146 0.2221033 1.8314635
0.17872085 0.22203562 1.8317385
0.16605417 0.22208324 1.8329145
0.15387209 0.22284049 1.8399408
0.13971934 0.22062281 1.8221363
0.12753014 0.22137314 1.8289899
0.11513002 0.22188239 1.8337808
0.10206614 0.22108012 1.8275831
0.089621715 0.22158249 1.8322034
0.076788202 0.22112985 1.8288034
0.06400542 0.22067359 1.8253149
0.051523317 0.22128451 1.8306712
0.17886445 0.20950156 1.8341991
0.16627656 0.20965865 1.8363656
0.15407768 0.2103729 1.8433987
0.14035937 0.2089542 1.8315253
0.12708497 0.20798023 1.8235178
0.11516108 0.20924535 1.8352513
0.10231338 0.20893744 1.8330173
0.089309104 0.20817745 1.8267242
0.076561049 0.20786269 1.8243119
0.063919187 0.20776896 1.8237983
0.051537257 0.20868166 1.8321377
0.1913763 0.19658303 1.8323431
0.17871837 0.19662836 1.8336052
0.16551866 0.19603898 1.8288387
0.15354198 0.1969205 1.8378528
0.14054562 0.19653541 1.8348907
0.12793958 0.19667381 1.8367987
0.11494344 0.19617698 1.8326654
0.10184503 0.19536079 1.8254633
0.08947625 0.19591129 1.8310814
0.076580562 0.19529943 1.8256873
0.064246185 0.19616005 1.8341174
0.051273253 0.19501482 1.8235781
0.19142172 0.18392748 1.8336409
0.17914361 0.1843639 1.8388658
0.16626932 0.1842066 1.8380623
0.15382494 0.18453899 1.8421286
0.12831281 0.18450548 1.8430612
0.11527962 0.18404074 1.8389269
0.2056323 0.27485889 1.8390983
0.19257647 0.27448863 1.8375056
0.20526364 0.26159304 1.836993
0.19294681 0.26221311 1.8422898
0.20554623 0.24916248 1.8407048
0.20680803 0.23782285 1.8532079
0.19163193 0.23499396 1.8318788
0.2053383 0.22335497 1.8409702
0.19153282 0.20945333 1.8329356
0.20555432 0.19800757 1.8448322
-0.11313969 0.031420685 1.8388859
-0.11308239 0.018741574 1.8380587
-0.11296239 0.0060719238 1.8361474
-0.11302325 -0.0065813824 1.8371438
-0.11259513 -0.019165089 1.8300691
-0.11253057 -0.0317555 1.8288971
-0.11234243 -0.044282753 1.8256441
-0.11257871 -0.056982689 1.8292897
-0.11393815 0.14647371 1.8483845
-0.11353228 0.13323836 1.8423713
-0.11409811 0.12112544 1.8522012
-0.11362766 0.10790177 1.8450124
-0.11352047 0.095087722 1.8437116
-0.11359408 0.082428887 1.8453144
-0.11287443 0.069266759 1.833864
-0.11312702 0.056753565 1.8382843
-0.11295158 0.044016998 1.8356346
0.038708303 0.031269293 1.8319299
0.026100818 0.031270601 1.8321511
0.013200026 0.030594518 1.792293
0.00088026654 0.031187069 1.827336
-0.011733143 0.031288382 1.8332981
-0.024348846 0.031287659 1.8331749
-0.03696337 0.031286426 1.8329657
-0.049522482 0.031250861 1.8306715
-0.062018283 0.031197868 1.8272927
-0.074793771 0.03127972 1.8318218
-0.087350212 0.031259559 1.8302697
-0.10005105 0.031289641 1.8316275
0.038856167 0.018732008 1.8390983
0.026101649 0.018662097 1.8323212
0.013215052 0.018278819 1.7944595
0.00088172755 0.018642545 1.8305055
-0.01172717 0.018662613 1.8324684
-0.024349628 0.01867228 1.8333454
-0.037024528 0.018701842 1.8361354
-0.04955088 0.018660415 1.8318412
-0.0620539 0.018628791 1.8284621
-0.074836619 0.018677639 1.8329915
-0.087400272 0.018665606 1.8314389
-0.10010832 0.018683556 1.8327963
0.038689207 0.0060491669 1.8311849
0.026158562 0.0060657943 1.8364052
0.013222562 0.0059316596 1.795542
0.00087792031 0.0060201488 1.8225898
-0.011727356 0.0060528605 1.8325527
-0.024270996 0.0060363449 1.8274304
-0.036845185 0.0060361074 1.8272218
-0.049551666 0.0060521481 1.8319256
-0.062155776 0.006051715 1.8315444
-0.074675985 0.006044636 1.8290789
-0.08730711 0.0060472828 1.8295254
-0.10000174 0.0060531059 1.8308837
0.038647301 -0.0065460871 1.8291836
0.013178751 -0.0064045954 1.7895405
0.00086120225 -0.0063975574 1.7875885
-0.011714662 -0.0065500885 1.8305513
-0.024244651 -0.0065321964 1.8254288
-0.036825184 -0.0065354872 1.82622
-0.049605273 -0.006563508 1.8339231
-0.061987586 -0.0065382053 1.8265455
-0.074675955 -0.0065482748 1.8290772
-0.087307081 -0.0065511419 1.8295236
-0.10000171 -0.0065574502 1.8308821
0.037683114 -0.018657407 1.7831085
0.025889762 -0.019010812 1.8173186
0.012908391 -0.018337134 1.7524579
0.00085832225 -0.018638084 1.7815032
-0.011714468 -0.01914617 1.8304635
-0.024310093 -0.019145725 1.8303404
-0.036884554 -0.019134603 1.829132
-0.049765334 -0.019247619 1.8398328
-0.062087473 -0.019142546 1.8294563
-0.074715182 -0.019151235 1.8299887
-0.087258376 -0.019138882 1.8284371
-0.099783741 -0.019126225 1.8268005
0.026030157 -0.031688862 1.8271437
0.013433633 -0.031638082 1.824279
0.0008473089 -0.030503519 1.7583375
-0.011644283 -0.031552184 1.8192918
-0.024243459 -0.031654615 1.8251681
-0.036923334 -0.031756539 1.830958
-0.049602844 -0.031806353 1.8336614
-0.061883658 -0.03163217 1.823287
-0.074470036 -0.031646583 1.8238209
-0.087208271 -0.031712055 1.8272649
-0.099780485 -0.031708259 1.826627
0.038371235 -0.043995664 1.8156698
0.026254853 -0.04464592 1.8428783
0.013615492 -0.044791155 1.8490123
0.00086493883 -0.043494649 1.7950774
-0.011738894 -0.044430997 1.8340288
-0.024334451 -0.044381946 1.8319067
-0.037061457 -0.044524297 1.8376946
-0.049412742 -0.044257674 1.8264059
-0.061847001 -0.044158462 1.8220292
-0.074547313 -0.044250634 1.8255599
-0.086967707 -0.04417403 1.8220127
-0.099667475 -0.04424075 1.8243712
0.038641013 -0.056891635 1.8283175
0.026126051 -0.057048179 1.8335354
0.013497807 -0.05701879 1.8326714
0.00087491167 -0.056495063 1.8157284
-0.011738134 -0.057049755 1.833683
-0.02438554 -0.057110112 1.8355584
-0.03707904 -0.057200376 1.8383471
-0.049489968 -0.056919709 1.8290585
-0.061910253 -0.056761481 1.8236829
-0.074785151 -0.057003144 1.8312073
-0.087434687 -0.057028063 1.8316525
-0.099661022 -0.056805484 1.8240265
0.038686868 0.18247105 1.8251727
0.026213259 0.18336628 1.8343489
0.00088264188 0.18258344 1.8265725
-0.011732964 0.18268083 1.8275307
-0.024374777 0.18287392 1.8293977
-0.03700275 0.18286681 1.8291883
-0.049682487 0.18305404 1.8308824
-0.062420655 0.18333693 1.8334841
-0.075156301 0.18351826 1.8350037
-0.087585241 0.18300638 1.8294775
-0.10048188 0.18347764 1.8338054
0.038862858 0.17064223 1.8343391
0.026219126 0.17074111 1.8355567
0.013487602 0.16991878 1.826731
0.00088236277 0.16992031 1.8267798
-0.011741927 0.17019467 1.8297298
-0.024353934 0.17009895 1.8286111
-0.037011035 0.17027599 1.830393
-0.049532961 0.16989931 1.8261161
-0.062266696 0.17025457 1.8297156
-0.075051919 0.17060708 1.8332278
-0.0875104 0.17022227 1.8286939
-0.10109837 0.17185451 1.8459516
0.038619895 0.15699561 1.8235064
0.026125833 0.15751238 1.8297044
0.013432072 0.15666585 1.8198763
0.00088445458 0.1576879 1.8318818
-0.011763385 0.15785691 1.8338374
-0.024464224 0.1581935 1.8376989
-0.0369788 0.15750696 1.8295195
-0.049570039 0.15741324 1.8282281
-0.062279638 0.15765718 1.8308343
-0.075107917 0.15806861 1.8353442
-0.087481372 0.15754221 1.8288171
-0.10020107 0.15769352 1.8301671
0.038627315 0.14444362 1.8245349
0.026074421 0.14460608 1.8267492
0.013478416 0.14460972 1.8268839
0.00087746762 0.14390679 1.8179607
-0.011727612 0.14476655 1.8288897
-0.024376843 0.14499797 1.8317573
-0.037105735 0.14538355 1.8365318
-0.049793851 0.14545381 1.837232
-0.062325202 0.1451305 1.8328632
-0.074960694 0.14511785 1.8323951
-0.087592594 0.14510289 1.8318405
-0.10022029 0.14508563 1.8311998
0.038717844 0.13217044 1.8294663
0.026079021 0.13203302 1.8276927
0.013495385 0.13217926 1.8298228
0.00088144012 0.13196611 1.8268793
-0.011710661 0.13196519 1.8268423
-0.024315355 0.13203362 1.8277167
-0.036892559 0.13195701 1.8265105
-0.04948115 0.13194974 1.826216
-0.06213456 0.13208322 1.8278294
-0.074933484 0.13242882 1.8323454
-0.08760801 0.13248658 1.8327874
-0.10023791 0.13247082 1.8321465
0.03866126 0.11938404 1.8273319
0.026026748 0.11919506 1.8245596
0.013468366 0.11932736 1.8266898
0.00088253629 0.11952239 1.8297327
-0.011737907 0.11965083 1.8316914
-0.024398217 0.11984199 1.8345618
-0.036958411 0.11957875 1.8303611
-0.04983741 0.12021851 1.8400416
-0.062413402 0.12001605 1.8366663
-0.074945495 0.11981171 1.8332059
-0.08757481 0.11979934 1.8326514
-0.100308 0.11991426 1.8340037
0.03870872 0.10692188 1.8301001
0.025945814 0.10629019 1.8193406
0.013411938 0.10629288 1.8194749
0.00088314124 0.10698783 1.8315035
-0.01172692 0.10692926 1.8304683
-0.024335936 0.10692679 1.8303452
-0.03698374 0.10703827 1.8321325
-0.049576629 0.10697452 1.8308388
-0.062287956 0.10714035 1.8334509
-0.07495632 0.10718881 1.8339803
-0.087681934 0.10729335 1.8354203
-0.10032247 0.10728054 1.834779
0.038776513 0.094478346 1.8337821
0.025963267 0.093819045 1.8210218
0.013435555 0.09392345 1.8231534
0.00088420982 0.094485514 1.8341881
-0.011722084 0.094280787 1.8301561
-0.024378557 0.09448269 1.8340276
-0.036868595 0.094121881 1.8268286
-0.0495294 0.094269715 1.8295292
-0.06212787 0.094262987 1.8291484
-0.075006381 0.094611771 1.8356667
-0.08740969 0.094347 1.8301238
-0.10022722 0.094539694 1.8334733
0.038864635 0.08203356 1.8383789
0.025980311 0.081329741 1.822618
0.013429769 0.081331797 1.8227525
0.00088239933 0.081686169 1.8307935
-0.011698029 0.0815088 1.8267605
-0.024262816 0.081462711 1.8256388
-0.037012633 0.081857309 1.8344196
-0.049534969 0.081675999 1.8301294
-0.062168479 0.081714369 1.8307471
-0.075095676 0.082060739 1.8382654
-0.087655768 0.081963859 1.8357137
-0.10029254 0.081954084 1.8350729
0.038596138 0.068894789 1.8259075
0.025982814 0.068785489 1.8231301
0.013423766 0.068749852 1.8222654
0.00088534964 0.069311261 1.8373038
-0.011705502 0.068974316 1.8282731
-0.024317821 0.069047496 1.8301487
-0.036936264 0.069082171 1.8309389
-0.049459323 0.06896621 1.827647
-0.062308975 0.069260299 1.8352565
-0.074779376 0.069104739 1.8307945
-0.087475181 0.069172315 1.8322374
-0.10019403 0.069238789 1.8335932
0.038536403 0.056235589 1.8233365
0.025730703 0.05568777 1.8055669
0.013366444 0.055964269 1.8146956
0.0008844657 0.056606647 1.8357344
-0.011687408 0.056300607 1.8257024
-0.024359277 0.056543827 1.8335754
-0.036879264 0.056388792 1.8283693
-0.049570531 0.056507912 1.8320713
-0.062145825 0.056473315 1.8306911
-0.074785367 0.056498922 1.8312228
-0.087340415 0.056462519 1.8296711
-0.10003985 0.056516867 1.8310283
0.038350377 0.043472141 1.8146821
0.026269037 0.044162501 1.8438901
0.013301597 0.043261345 1.8060375
0.00088213442 0.04385535 1.8310789
-0.011669123 0.043665096 1.8230444
-0.024334507 0.04387778 1.831919
-0.036941603 0.043876056 1.8317096
-0.049680967 0.043992333 1.8364115
-0.062149826 0.043870494 1.8310336
-0.07491152 0.043961599 1.8345619
-0.088149525 0.044265591 1.8469894
-0.10020849 0.043975513 1.8343657
0.19070558 0.03138357 1.8325207
0.17837998 0.031441573 1.8367645
0.16582704 0.031465307 1.8389343
0.15317029 0.031471651 1.8400223
0.13975161 0.031308442 1.8310541
0.12714885 0.031313762 1.8319649
0.11454 0.031318583 1.8327893
0.10170548 0.031255253 1.8295345
0.089113429 0.031259067 1.8301854
0.07651709 0.031262375 1.8307505
0.064124577 0.031366702 1.8372252
0.051508293 0.031385936 1.838619
0.19112217 0.018769834 1.8366703
0.17828976 0.018754046 1.8359402
0.1648526 0.018667357 1.8281499
0.15309288 0.018771991 1.8391972
0.13998245 0.018714948 1.834216
0.1274962 0.018738307 1.8371232
0.1143581 0.018660458 1.8299657
0.10181879 0.018673128 1.8317016
0.088730484 0.018574456 1.8223653
0.076519534 0.018657193 1.8309209
0.064161211 0.018729547 1.8383955
0.051537707 0.018741027 1.8397895
0.19081722 0.006077827 1.8337709
0.17838843 0.0060857842 1.8370203
0.16574581 0.0060871071 1.8381944
0.15268397 0.0060719778 1.8342991
0.13968281 0.0060567455 1.830312
0.12715492 0.0060610473 1.8322197
0.11429806 0.006048888 1.829052
0.10165528 0.0060464498 1.8287905
0.089117683 0.0060504614 1.83044
0.076479338 0.0060478281 1.8300059
0.063885517 0.006048372 1.830485
0.051260836 0.0060455431 1.8298782
0.17800495 -0.0065786811 1.8330373
0.16512232 -0.006569481 1.8312203
0.15235487 -0.0065637184 1.8303109
0.13998461 -0.0065755723 1.8342988
0.12701756 -0.0065589631 1.8302228
0.11442172 -0.0065599731 1.8310465
0.10176533 -0.0065573324 1.8307856
0.089117646 -0.0065545854 1.8304381
0.076810576 -0.0065801116 1.8379974
0.063712552 -0.0065345848 1.8254863
0.051260818 -0.0065492573 1.8298764
0.17838544 -0.019271169 1.8369302
0.16511963 -0.019202862 1.8311327
0.15235238 -0.019186012 1.830223
0.13983141 -0.019199941 1.8322169
0.12722145 -0.019203203 1.8331276
0.11423428 -0.019143971 1.8279645
0.10159853 -0.019136243 1.8277025
0.089067966 -0.019148948 1.8293518
0.076353826 -0.01911987 1.8269192
0.063849859 -0.019142332 1.8293961
0.051232208 -0.01913337 1.8287892
0.17780459 -0.031845566 1.8307843
0.16511427 -0.03183531 1.8309585
0.15218292 -0.031773034 1.8280563
0.13960047 -0.031778939 1.8290517
0.12708001 -0.031801514 1.8309585
0.11466352 -0.031857964 1.8347765
0.10176034 -0.031776428 1.8305241
0.08901684 -0.031728745 1.8281794
0.076351345 -0.031697724 1.826746
0.063605666 -0.031614617 1.8222277
0.050952863 -0.03154818 1.8186213
0.1782752 -0.044600442 1.8354992
0.16519536 -0.044490226 1.8316941
0.15266907 -0.044523172 1.8337742
0.13951826 -0.044363495 1.8277949
0.12700519 -0.04439503 1.8297013
0.11434871 -0.04437786 1.829527
0.10192049 -0.044455994 1.8332589
0.088964291 -0.044293366 1.8269215
0.076513246 -0.044370085 1.8304822
0.063810073 -0.044302039 1.8279641
0.051533461 -0.044569455 1.839349
0.17989306 -0.057790771 1.8520657
0.16518471 -0.057125818 1.8313472
0.15257698 -0.057137329 1.8324313
0.1398865 -0.057117131 1.8324326
0.12692833 -0.056972761 1.8283581
0.11434131 -0.05698153 1.8291813
0.1017488 -0.056989387 1.8299184
0.089103177 -0.056965511 1.8295714
0.076756686 -0.057156514 1.8361284
0.063805938 -0.056884162 1.8276186
0.051446825 -0.057135027 1.8360041
0.17853694 -0.070044301 1.837702
0.16543856 -0.069871493 1.8339005
0.15256469 -0.06977272 1.8319983
0.13995066 -0.069785677 1.8329962
0.12719265 -0.069722258 1.8319142
0.1143321 -0.069582462 1.8287495
0.10174059 -0.069592044 1.8294866
0.089144185 -0.06960053 1.8301377
0.076626278 -0.069683187 1.8327
0.064146578 -0.069840044 1.8371747
0.051914614 -0.070409968 1.8525527
0.19080687 0.1833367 1.8277018
0.089401349 0.18310212 1.830387
0.076598875 0.18272689 1.8269768
0.064054385 0.18294041 1.8294454
0.051479574 0.18315102 1.8318287
0.19125915 0.1710799 1.8328714
0.17851335 0.17102776 1.8331419
0.16630626 0.17152326 1.8392757
0.15295555 0.17082363 1.832428
0.14068577 0.17131391 1.8383927
0.12793006 0.17125101 1.8383158
0.11487304 0.17072646 1.8331825
0.10205697 0.1704744 1.83094
0.089565784 0.17077047 1.834577
0.076698698 0.1703293 1.8301704
0.064103253 0.17043632 1.8316458
0.051407915 0.17026511 1.8300492
0.1910935 0.15825133 1.8320131
0.17826296 0.15811814 1.8312901
0.16625166 0.15874685 1.8394101
0.15323365 0.1584388 1.8365289
0.14071493 0.158638 1.8395183
0.12713368 0.15755998 1.8275129
0.11526746 0.15860403 1.8402708
0.10196821 0.15769067 1.8300704
0.089584388 0.15813488 1.8356991
0.076880053 0.15806648 1.8352715
0.064116575 0.1578255 1.8327657
0.051363137 0.15749687 1.8291758
0.17906298 0.14610119 1.8402644
0.16592751 0.14574206 1.8364781
0.15293421 0.14545859 1.8335925
0.13953568 0.14470372 1.824652
0.12770671 0.14558823 1.8365014
0.11454815 0.14498492 1.8293693
0.10226267 0.14547409 1.8360803
0.089457065 0.14525707 1.8337476
0.076646641 0.14495945 1.8303306
0.063990682 0.14489415 1.829814
0.051262051 0.14459181 1.8262212
0.19116329 0.13293907 1.8339998
0.17851965 0.13296992 1.8352607
0.16604556 0.13314138 1.8384225
0.15238568 0.13231172 1.8275834
0.14016333 0.13269308 1.8335532
0.12731756 0.13250133 1.831481
0.11469187 0.13252164 1.8323065
0.10195073 0.13239703 1.8310542
0.089135535 0.1321274 1.8277214
0.076453283 0.13199848 1.8262933
0.064243868 0.13279606 1.8377373
0.051271092 0.13201998 1.8271649
0.19129623 0.12033768 1.8358562
0.17854805 0.12030108 1.8361245
0.16598299 0.12039169 1.8382936
0.1529032 0.12009306 1.8344102
0.14063817 0.12043817 1.8403854
0.12774955 0.12026478 1.838315
0.114463 0.11963723 1.8291836
0.10207703 0.1199121 1.8339071
0.08943896 0.1199267 1.8345608
0.076713815 0.11981009 1.8331336
0.063908532 0.11949767 1.8286272
0.051307067 0.11950646 1.8290204
0.19132361 0.10765924 1.8366339
0.17866945 0.10768425 1.8378959
0.16600679 0.1077076 1.8390718
0.15284295 0.10738267 1.8341916
0.13990422 0.10717147 1.8312095
0.12715039 0.10707404 1.8301289
0.11466492 0.10720607 1.8329462
0.10203674 0.10722082 1.8336854
0.089114472 0.106887 1.8283554
0.076517969 0.10689831 1.8289207
0.063917764 0.10690787 1.8293998
0.051508747 0.1073205 1.8367785
0.19134793 0.094975665 1.837325
0.17830896 0.094793998 1.8346109
0.16513775 0.094508871 1.829816
0.15327363 0.094986513 1.8398576
0.13984665 0.094494447 1.8309016
0.12750979 0.094714373 1.8357983
0.11461781 0.09452498 1.8326378
0.10171974 0.094283037 1.8283907
0.089174122 0.094345517 1.8300396
0.076651961 0.094457492 1.8326006
0.063960545 0.094363943 1.8310844
0.051348828 0.094370879 1.8314776
0.19075358 0.082022816 1.8319672
0.1781372 0.082041912 1.8332257
0.16613556 0.082368702 1.8413634
0.1527151 0.081987932 1.833493
0.13993774 0.081914827 1.8324994
0.1275927 0.082105376 1.8373976
0.11456881 0.081852965 1.8322425
0.10189621 0.081820056 1.8319836
0.089521579 0.082050942 1.837625
0.076619178 0.0817945 1.832204
0.063898578 0.081669256 1.8296882
0.051410127 0.081852056 1.834076
0.19128488 0.069558181 1.8374537
0.1777709 0.069238462 1.8297635
0.16552816 0.069402829 1.8349146
0.15281197 0.069379464 1.8350049
0.13987574 0.069242954 1.8320189
0.12726174 0.069254696 1.8329298
0.11451801 0.069190636 1.8317606
0.10179597 0.069125436 1.8305033
0.089240931 0.069171242 1.8321532
0.076336771 0.068916939 1.8257298
0.064008489 0.069184773 1.8331989
0.051331796 0.06911511 1.8315946
0.19037645 0.056595035 1.8289368
0.17826425 0.056760799 1.8351673
0.16536327 0.056681566 1.833354
0.15274192 0.056692984 1.8344389
0.14026415 0.05676458 1.8374313
0.127066 0.056529902 1.830368
0.11483636 0.056721866 1.8371776
0.1017491 0.056485295 1.8299339
0.089296296 0.05658384 1.8335804
0.07654991 0.05649817 1.8311507
0.063944444 0.056503236 1.8316296
0.05128039 0.056446284 1.8300248
0.19120966 0.044154625 1.8372355
0.17837146 0.044117503 1.8365066
0.16483949 0.043889977 1.827723
0.15291618 0.044088554 1.8367753
0.14012221 0.044049297 1.8357817
0.12707411 0.04391443 1.8307105
0.11447267 0.043921195 1.8315347
0.10186569 0.043927252 1.8322728
0.089205585 0.043908879 1.8319262
0.07651341 0.043866049 1.830494
0.063913979 0.043869998 1.8309734
0.051478051 0.044015676 1.8373624
0.19194627 -0.0066231908 1.8447109
0.19163521 -0.019328795 1.8416381
0.19152637 -0.032026935 1.8404684
0.19274876 -0.045021571 1.8521398
0.19195019 0.14622355 1.840983
-0.075758487 0.29996783 1.8399817
-0.088524982 0.29993749 1.8394213
0.038950745 0.28521597 1.8292743
0.026222065 0.28476927 1.8265324
0.01355473 0.2847763 1.826668
0.00088675413 0.28477886 1.8267173
-0.011768622 0.28447139 1.8247037
-0.024461839 0.28492329 1.8275447
-0.037055288 0.28430128 1.8233823
-0.05001992 0.28611901 1.8349414
-0.062810242 0.28640449 1.8365319
-0.075463608 0.28607449 1.8340853
-0.087897919 0.28512919 1.8276042
-0.10132397 0.28723365 1.8407766
0.03894341 0.27247712 1.8301882
0.026203031 0.27190408 1.8264539
0.013537619 0.27176484 1.8256001
0.00088896602 0.27278954 1.8325745
-0.011772713 0.27191144 1.8266013
-0.02445722 0.27219737 1.8284563
-0.037108004 0.27204087 1.8272572
-0.049930435 0.27290219 1.8328942
-0.062496953 0.27229905 1.8285556
-0.075167358 0.27227569 1.8280861
-0.087881312 0.27239403 1.8285183
-0.10141296 0.27469742 1.8436804
0.038872838 0.25932121 1.8280438
0.026225816 0.25947106 1.8292559
0.013556672 0.2594775 1.8293917
0.00088926143 0.26017624 1.8343922
-0.011789277 0.25961736 1.8303941
-0.024491599 0.25989005 1.8322507
-0.037239879 0.26029781 1.8350104
-0.04975995 0.25930884 1.8277837
-0.062450651 0.25942987 1.8283908
-0.07511168 0.25940758 1.8279217
-0.087863356 0.25965965 1.8293445
-0.10144659 0.26199576 1.8455114
0.038718093 0.24567716 1.8218424
0.026177807 0.24634975 1.8270189
0.013502738 0.24582581 1.8231897
0.00088525767 0.24635814 1.8272035
-0.011755055 0.24622391 1.8261753
-0.024328684 0.24555576 1.8210965
-0.036972646 0.24581127 1.8228693
-0.04977572 0.24672544 1.8295099
-0.062503971 0.2469731 1.8311085
-0.075135462 0.24681935 1.8296485
-0.087844022 0.24692662 1.8300825
-0.10034633 0.24650021 1.826471
0.038729772 0.23313569 1.8234757
0.026101187 0.23301944 1.8227048
0.013514093 0.23340252 1.8258159
0.00088361942 0.2332789 1.8248731
-0.011733285 0.23315153 1.823844
-0.02436229 0.23327202 1.8247129
-0.037023675 0.23351447 1.8264873
-0.049523327 0.23287301 1.821233
-0.062254466 0.23335956 1.8248181
-0.075198434 0.23434521 1.8322806
-0.087587625 0.233567 1.8257784
-0.10140134 0.23630477 1.8469315
0.038699064 0.22034526 1.8230381
0.026150929 0.22083022 1.8272302
0.013496111 0.22047877 1.824387
0.00088387245 0.22071876 1.8264219
-0.011755636 0.22095521 1.8283702
-0.024356129 0.22059326 1.8252689
-0.036874726 0.21998981 1.820096
-0.049564246 0.22045366 1.8237717
-0.062205181 0.22055709 1.8243828
-0.075219929 0.22172755 1.8338361
-0.087518349 0.22075336 1.8253455
-0.10056705 0.22167872 1.832637
0.038688637 0.20768374 1.8235049
0.026073448 0.20758004 1.8227323
0.013550765 0.20870733 1.8328037
0.00088363519 0.20803598 1.8268911
-0.011853803 0.21005431 1.8447399
-0.024362722 0.20802981 1.8267308
-0.037024353 0.20824614 1.8285085
-0.049684677 0.20834693 1.829206
-0.062591173 0.20922974 1.836769
-0.075280637 0.20921162 1.8362987
-0.08791934 0.20907803 1.8347492
-0.10129578 0.2105113 1.8470052
0.038844854 0.19586927 1.8318385
0.026136491 0.19545564 1.828083
0.013488638 0.19514427 1.8252352
0.00088481419 0.19567317 1.8302562
-0.011812493 0.19662067 1.839169
-0.024382081 0.19556193 1.8291014
-0.036834259 0.19460556 1.8199441
-0.049617063 0.19543819 1.8276023
-0.062472854 0.19616222 1.8341779
-0.075097941 0.19603984 1.8327148
-0.087988913 0.19654667 1.8371259
-0.10024194 0.19568038 1.8285384
0.013572049 0.18366683 1.8374697
0.077202916 0.28591794 1.8330246
0.064420909 0.28563759 1.8315327
0.051690694 0.28550547 1.8309412
0.17840618 0.27236429 1.8240055
0.16585034 0.27256817 1.826165
0.15310925 0.27247617 1.8262671
0.14112639 0.27383885 1.8361465
0.12819402 0.27344665 1.834105
0.11504978 0.27246636 1.8280246
0.10259831 0.27308705 1.8327174
0.089799412 0.27282771 1.8313978
0.077147208 0.27300206 1.8329557
0.064374357 0.27273405 1.8314611
0.051514979 0.27187768 1.8259237
0.1789427 0.26046532 1.830749
0.16670397 0.26121637 1.8368579
0.1534058 0.26029423 1.8310436
0.14057136 0.26006344 1.830072
0.12809958 0.26052433 1.8339517
0.11496461 0.25958937 1.8278638
0.10263232 0.26045981 1.8345373
0.089829199 0.26021254 1.8332161
0.077172801 0.26037884 1.8347749
0.064292312 0.25970551 1.8303096
0.051310688 0.25819245 1.8198167
0.19126767 0.24723922 1.8272748
0.17919008 0.24808982 1.8344561
0.1660461 0.24748115 1.8306991
0.1537822 0.24819206 1.8367275
0.14046523 0.24717829 1.8298266
0.12800312 0.24761683 1.8337082
0.11493927 0.24685971 1.8286026
0.10233555 0.24702567 1.8303332
0.08961723 0.24692281 1.8299979
0.076866969 0.24668355 1.8285853
0.064416125 0.24750033 1.8350103
0.051742204 0.24765077 1.8363971
0.17857452 0.23454571 1.8291931
0.16707286 0.23622854 1.8432133
0.15358222 0.23514499 1.8354117
0.14133525 0.23594183 1.8423513
0.12838395 0.23560436 1.8403029
0.11534392 0.2350117 1.8361846
0.10236634 0.23441519 1.8319753
0.089644216 0.23431765 1.8316396
0.077014022 0.2344678 1.8331991
0.064332061 0.23448855 1.833681
0.051314726 0.2329967 1.8221767
0.17919897 0.22262961 1.8366799
0.16587648 0.22184558 1.8309366
0.15395415 0.22295932 1.8409302
0.13994518 0.22097942 1.8251064
0.12773561 0.2217298 1.8319614
0.11506832 0.22176349 1.8327898
0.10212104 0.22119905 1.8285744
0.089621715 0.22158249 1.8322034
0.076994732 0.22172461 1.8337636
0.06400542 0.22067359 1.8253149
0.051384814 0.22068965 1.8257086
0.17991659 0.21073394 1.8450791
0.16698752 0.21055511 1.8442833
0.1539135 0.21014874 1.841418
0.14073588 0.20951471 1.8364795
0.12749603 0.20865294 1.8294657
0.11479079 0.20857254 1.8293008
0.10231338 0.20893744 1.8330173
0.089501575 0.20862609 1.8306943
0.076643683 0.20808704 1.8262975
0.064160779 0.20855427 1.8307499
0.051398713 0.20812067 1.8271712
0.17967512 0.19768098 1.8435036
0.16551866 0.19603898 1.8288387
0.15329565 0.19660458 1.8348798
0.14069627 0.19674605 1.8368739
0.12835073 0.19730586 1.8427511
0.11512864 0.19649304 1.8356431
0.1019549 0.19557153 1.8274491
0.08947625 0.19591129 1.8310814
0.076828524 0.19593181 1.8316487
0.064142622 0.19584383 1.831136
0.051384114 0.19543648 1.8275543
0.17895222 0.18416694 1.8368847
0.16626932 0.1842066 1.8380623
0.15439983 0.18522868 1.8490708
0.14050379 0.1837846 1.8351965
0.12790155 0.18391411 1.8371046
0.11527962 0.18404074 1.8389269
0.1024188 0.18377012 1.8366892
0.20585036 0.27515039 1.8410649
0.19349691 0.27580059 1.8463618
0.20591804 0.26242703 1.8428986
0.19233297 0.26137891 1.8363799
0.20598263 0.2496915 1.8446455
0.20604411 0.23694435 1.8463054
0.19245087 0.23599821 1.8397732
0.20653909 0.22466114 1.8518261
0.19178864 0.22245961 1.8344263
0.20604841 0.21130547 1.8483764
0.19194251 0.20990135 1.8368891
0.20566355 0.19811279 1.8458207
0.19168365 0.19689874 1.8353106
-0.11283523 0.031336132 1.8338959
-0.1128388 0.018701205 1.8340664
-0.1127797 0.0060621044 1.833153
-0.11302325 -0.0065813824 1.8371438
-0.11253422 -0.019154724 1.8290709
-0.11289592 -0.031858604 1.8348851
-0.11246421 -0.044330757 1.8276398
-0.11294403 -0.057167597 1.8352757
-0.11409811 0.12112544 1.8522012
-0.11350593 0.10778618 1.8430195
-0.11297265 0.094628856 1.83474
-0.11365496 0.082473062 1.8463116
-0.11293531 0.069304116 1.8348614
-0.11288347 0.056631383 1.8342935
-0.11295158 0.044016998 1.8356346
0.038498845 0.031100089 1.8219335
0.025860712 0.030982938 1.8151551
0.013360647 0.030966798 1.8142892
0.00088074419 0.031203991 1.8283358
-0.011707759 0.031220695 1.8292987
-0.024309341 0.031236894 1.8301756
-0.03692339 0.031252585 1.8309664
-0.049495671 0.031233938 1.8296721
-0.062119178 0.031248625 1.8302906
-0.074793771 0.03127972 1.8318218
-0.087397479 0.031276476 1.8312684
-0.10010514 0.031306554 1.8326259
0.038919009 0.018762302 1.8420975
0.026101649 0.018662097 1.8323212
0.013149342 0.018187929 1.7854602
0.00088077225 0.018622346 1.8285056
-0.011701787 0.018622218 1.8284687
-0.024349628 0.01867228 1.8333454
-0.036944561 0.018661449 1.8321364
-0.049416814 0.018609928 1.8268433
-0.061986633 0.018608596 1.8264633
-0.074917518 0.01869783 1.8349897
-0.087400272 0.018665606 1.8314389
-0.10032465 0.018723931 1.8367903
0.038626365 0.0060393414 1.8281856
0.026243309 0.0060854456 1.8424045
0.013295575 0.0059644128 1.8055418
0.00087457674 0.005997221 1.8155898
-0.011714664 0.0060463096 1.8305528
-0.024297334 0.0060428954 1.8294301
-0.036845185 0.0060361074 1.8272218
-0.049524851 0.0060488731 1.8309259
-0.062155776 0.006051715 1.8315444
-0.074837796 0.0060577337 1.8330756
-0.087448917 0.006057105 1.8325219
-0.10000174 0.0060531059 1.8308837
0.038835827 -0.0065780194 1.8381815
0.013200655 -0.0064152405 1.7925404
0.00086024695 -0.0063904612 1.7855885
-0.011695624 -0.006539444 1.8275514
-0.024270989 -0.0065392931 1.8274286
-0.036965128 -0.0065603233 1.8332186
-0.049444392 -0.0065422212 1.8279253
-0.061987586 -0.0065382053 1.8265455
-0.0745546 -0.006537633 1.8260797
-0.087259814 -0.0065475949 1.8285247
-0.10005579 -0.0065609966 1.8318806
0.038269624 -0.018947795 1.8111008
0.02581914 -0.018958954 1.8123194
0.012988703 -0.018451223 1.7634569
0.00085736701 -0.018617341 1.7795032
-0.011695431 -0.019115055 1.8274637
-0.024257418 -0.01910424 1.826341
-0.036904547 -0.019144975 1.8301318
-0.049953029 -0.019320212 1.8468299
-0.062020209 -0.019121805 1.8274575
-0.074755631 -0.019161604 1.8309878
-0.087400183 -0.019169986 1.8314335
-0.1002164 -0.019209158 1.8347883
0.026143147 -0.031826414 1.8351417
0.013528545 -0.031861614 1.8372767
-0.011688704 -0.031672545 1.8262906
-0.024256626 -0.031671807 1.8261679
-0.036803391 -0.031653378 1.8249601
-0.049468782 -0.031720392 1.8286639
-0.061715495 -0.031546213 1.8182905
-0.074550934 -0.031680964 1.825819
-0.087019205 -0.031643301 1.82327
-0.10005089 -0.03179419 1.8316189
0.03847596 -0.044115741 1.8206671
0.00086923729 -0.043710802 1.8040748
-0.011707167 -0.044310912 1.8290304
-0.024294948 -0.044309895 1.8289077
-0.036741618 -0.044140052 1.8217025
-0.049439553 -0.044281688 1.8274052
-0.061914261 -0.044206489 1.8240275
-0.074466415 -0.044202615 1.823562
-0.086825907 -0.044102006 1.8190169
-0.099613398 -0.044216748 1.823373
0.038494408 -0.056675784 1.8213224
0.026154296 -0.057109855 1.8355343
0.013519707 -0.057111304 1.8356699
0.00087347894 -0.056402549 1.8127298
-0.011693719 -0.056833893 1.8266865
-0.024306536 -0.056925088 1.8295618
-0.036999088 -0.057077032 1.8343498
-0.049489968 -0.056919709 1.8290585
-0.062078394 -0.056915641 1.8286778
-0.074582919 -0.056848999 1.8262137
-0.087245643 -0.056904759 1.8276589
-0.099823251 -0.056897949 1.8270206
0.038624134 0.18217514 1.822188
0.026100451 0.18257719 1.8263887
0.013557471 0.18346955 1.8354795
0.00088311872 0.18268207 1.8275677
-0.011751969 0.18297675 1.8305161
-0.024348482 0.18267664 1.8274077
-0.036922917 0.18247227 1.8252087
-0.049655717 0.18295541 1.8298876
-0.062319923 0.18304107 1.8305005
-0.074994758 0.18312381 1.8310266
-0.087726809 0.18330219 1.8324596
-0.10048188 0.18347764 1.8338054
0.03873736 0.17009118 1.8283658
0.026148606 0.17028187 1.8305783
0.013531345 0.17046987 1.8327054
0.00088045496 0.16955291 1.8227967
-0.01169757 0.16955173 1.8227595
-0.024367085 0.17019078 1.8296069
-0.037050959 0.17045966 1.8323841
-0.049532961 0.16989931 1.8261161
-0.06236745 0.17053007 1.8327013
-0.075011522 0.17051525 1.8322328
-0.087935202 0.17104858 1.8376458
-0.10072033 0.17121188 1.8389914
0.038598977 0.15691057 1.8225101
0.026041193 0.15700209 1.8237268
0.013446655 0.15683594 1.821869
0.00088540866 0.15785801 1.8338746
-0.011763385 0.15785691 1.8338374
-0.024424765 0.15793835 1.83471
-0.036918897 0.15725182 1.8265309
-0.049703941 0.15783846 1.8332082
-0.062178861 0.15740207 1.8278469
-0.075107917 0.15806861 1.8353442
-0.087717421 0.15796731 1.8337934
-0.10036312 0.15794855 1.8331518
0.03869009 0.14467835 1.827525
0.026032092 0.14437133 1.8237587
0.013456536 0.14437497 1.8238932
0.00088033045 0.14437629 1.8239423
-0.011759308 0.14515781 1.8338743
-0.024389999 0.14507622 1.8327541
-0.037125707 0.1454618 1.8375285
-0.049767066 0.14537556 1.8362354
-0.062493194 0.14552169 1.8378451
-0.074758649 0.14472669 1.8274145
-0.087687038 0.14525934 1.8338321
-0.10022029 0.14508563 1.8311998
0.038634129 0.13188466 1.8254774
0.026079021 0.13203302 1.8276927
0.013466206 0.13189346 1.8258331
0.00088430353 0.13239481 1.8328639
-0.01170432 0.13189374 1.8258449
-0.024302198 0.13196217 1.8267193
-0.037032381 0.13245711 1.8334912
-0.04948115 0.13194974 1.826216
-0.062067352 0.13194035 1.8258356
-0.074812233 0.13221455 1.8293555
-0.087702468 0.13262942 1.8347801
-0.10040002 0.13268505 1.8351345
0.038682193 0.11944867 1.8283296
0.025956176 0.11887186 1.8195704
0.01346107 0.11926272 1.8256921
0.00088062708 0.11926382 1.8257409
-0.011718883 0.11945691 1.8286977
-0.024358738 0.11964808 1.8315684
-0.037058301 0.11990194 1.8353497
-0.049542673 0.11950754 1.8290685
-0.062346183 0.11988679 1.8346716
-0.07506676 0.12000558 1.8361971
-0.08771652 0.11999319 1.8356419
-0.10025395 0.11984965 1.8330073
0.038729656 0.10697971 1.8310982
0.025988163 0.10646368 1.8223352
0.013375453 0.10600373 1.8144835
0.00088218652 0.10687216 1.8295069
-0.011758632 0.10721841 1.8354598
-0.024349097 0.10698462 1.8313434
-0.037103623 0.10738523 1.8381212
-0.049469437 0.10674322 1.826847
-0.06232157 0.10719817 1.8344487
-0.074915886 0.107131 1.8329828
-0.087540209 0.10711993 1.8324287
-0.10064679 0.10762736 1.8407601
0.038692761 0.09427429 1.8297882
0.026090331 0.094278194 1.8300091
0.013420959 0.093821414 1.821156
0.00088659697 0.094740607 1.8391815
-0.011747457 0.094484858 1.8341508
-0.024365393 0.094431669 1.833029
-0.036888577 0.094172895 1.8278271
-0.049690209 0.094575785 1.8355192
-0.062295966 0.094518028 1.8341391
-0.074925505 0.094509766 1.833671
-0.087598689 0.09455099 1.8341142
-0.10017316 0.094488703 1.8324761
0.038718056 0.081724159 1.8313873
0.02605091 0.081550747 1.8276126
0.013451666 0.081464402 1.8257495
0.00088096684 0.081553563 1.8277965
-0.011729748 0.081729814 1.8317555
-0.024223322 0.081330106 1.822642
-0.03699265 0.081813104 1.8334209
-0.049561772 0.081720196 1.8311281
-0.062033985 0.081537589 1.8267533
-0.074812606 0.081751406 1.831278
-0.087372243 0.081698745 1.8297263
-0.10029254 0.081954084 1.8350729
0.038617082 0.068932176 1.8269066
0.025940452 0.068673342 1.8201326
0.013358071 0.068413392 1.813272
0.00088296196 0.069124334 1.8323072
-0.011686468 0.068862163 1.8252753
-0.024344154 0.069122262 1.8321471
-0.036936264 0.069082171 1.8309389
-0.04948613 0.069003589 1.8286459
-0.062174469 0.069110788 1.8312615
-0.07457716 0.068917871 1.8258021
-0.087191634 0.068948098 1.8262483
-0.10008589 0.069164053 1.8315976
0.03857829 0.056296714 1.825335
0.025744826 0.055718336 1.8065662
0.013366444 0.055964269 1.8146956
0.00088351057 0.056545518 1.8337353
-0.011662029 0.056178346 1.8217044
-0.024346109 0.056513265 1.8325759
-0.03689925 0.056419354 1.8293686
-0.049597342 0.05653847 1.8330705
-0.062112197 0.056442756 1.8296921
-0.074744925 0.056468368 1.830224
-0.087529466 0.056584731 1.8336649
-0.100148 0.056577966 1.8330245
0.038455103 0.043590851 1.8196796
0.026184298 0.044020042 1.8378923
0.013308898 0.04328509 1.8070372
0.00088117924 0.04380786 1.8290794
-0.011643741 0.04357012 1.8190457
-0.024360843 0.043925267 1.8339182
-0.037041552 0.043994766 1.8367072
-0.049680967 0.043992333 1.8364115
-0.062116195 0.043846756 1.8300345
-0.07491152 0.043961599 1.8345619
-0.088244051 0.044313062 1.8489866
-0.10010033 0.04392805 1.8323693
0.19070558 0.03138357 1.8325207
0.17751731 0.031289518 1.8278072
0.16680668 0.031651191 1.849889
0.15366384 0.031573061 1.8460011
0.13952523 0.03125773 1.8280631
0.12653096 0.031161591 1.8229873
0.11410707 0.03120021 1.8258036
0.1014303 0.031170689 1.8245429
0.089065202 0.031242151 1.8291867
0.076765522 0.031363878 1.8367445
0.063986227 0.031299029 1.8332281
0.051508293 0.031385936 1.838619
0.19081424 0.018739592 1.8336862
0.17800219 0.018723797 1.8329542
0.16511978 0.018697612 1.8311378
0.15301061 0.018761905 1.8382007
0.14005791 0.018725038 1.8352131
0.12756485 0.018748397 1.8381207
0.1146055 0.018700825 1.8339579
0.10209398 0.018723596 1.8366938
0.089068048 0.018645119 1.8293568
0.076229684 0.01858652 1.8239273
0.063849919 0.018638676 1.8294013
0.051537707 0.018741027 1.8397895
0.19050929 0.0060680187 1.8307867
0.17848429 0.0060890545 1.8380157
0.16512237 0.006064211 1.8312222
0.15301304 0.0060850638 1.8382856
0.14028652 0.0060829227 1.8382891
0.12715492 0.0060610473 1.8322197
0.11442176 0.0060554342 1.8310481
0.10171032 0.0060497234 1.829789
0.089069456 0.0060471874 1.8294412
0.076272301 0.0060314564 1.8250102
0.063747168 0.0060352734 1.8264873
0.051149763 0.0060324436 1.8258797
0.17819667 -0.0065857661 1.8350281
0.16565669 -0.0065907412 1.8371964
0.15309526 -0.0065956153 1.8392804
0.14058831 -0.0066039306 1.842276
0.12708622 -0.0065625086 1.8312205
0.11454541 -0.0065670647 1.8330426
0.10132502 -0.006528961 1.8227978
0.088972978 -0.0065439451 1.8274417
0.076769166 -0.0065765642 1.8369983
0.063643374 -0.0065274895 1.8234874
0.051260818 -0.0065492573 1.8298764
0.17800201 -0.019229747 1.8329488
0.16583213 -0.019285722 1.8391004
0.1525169 -0.019206731 1.8322161
0.13968047 -0.019179218 1.8302226
0.12708414 -0.019182475 1.8311324
0.11380135 -0.019071415 1.8209783
0.10132335 -0.019084411 1.8227104
0.088923298 -0.019117845 1.8263555
0.07622961 -0.019088764 1.8239219
0.063746095 -0.019111222 1.8263981
0.051065598 -0.019071149 1.8227918
0.17847554 -0.031965736 1.837751
0.16511427 -0.03183531 1.8309585
0.15234745 -0.031807382 1.8300492
0.13982685 -0.031830471 1.8320427
0.12708001 -0.031801514 1.8309585
0.11466352 -0.031857964 1.8347765
0.10214558 -0.031896729 1.8375125
0.089209728 -0.031797495 1.8321742
0.076268531 -0.031663347 1.8247479
0.063640252 -0.031631809 1.8232269
0.051036164 -0.03159976 1.8216196
0.17789181 -0.044504531 1.8315188
0.16519536 -0.044490226 1.8316941
0.15283358 -0.04457115 1.8357669
0.13966917 -0.04441148 1.8297887
0.12707384 -0.044419028 1.8306986
0.11471978 -0.044521865 1.8355138
0.10197552 -0.044479996 1.834257
0.088916071 -0.044269357 1.8259228
0.076471843 -0.044346076 1.8294834
0.063775487 -0.044278026 1.8269649
0.051561225 -0.044593468 1.8403484
0.17989306 -0.057790771 1.8520657
0.16545185 -0.057218205 1.8343339
0.15298824 -0.05729134 1.837412
0.1400374 -0.057178747 1.8344259
0.12727156 -0.057126824 1.8333439
0.11446499 -0.057043165 1.8311765
0.1017488 -0.056989387 1.8299184
0.089392476 -0.057150465 1.8355615
0.076839484 -0.057218172 1.8381256
0.063944273 -0.057007488 1.8316144
0.051502354 -0.057196695 1.8380024
0.17805776 -0.069856316 1.8327285
0.16526048 -0.069796279 1.8319098
0.15289368 -0.06992317 1.835982
0.140177 -0.069898538 1.8359855
0.12753585 -0.069910392 1.8368988
0.11464127 -0.069770619 1.8337364
0.10201572 -0.069780231 1.8344754
0.089385249 -0.069788739 1.8351283
0.076791868 -0.06983377 1.8366938
0.064181164 -0.069877692 1.8381734
0.18998708 0.182549 1.819783
0.12762737 0.18351987 1.8331335
0.11472391 0.18315355 1.829988
0.10225397 0.18347436 1.8337084
0.089497633 0.18329932 1.8323749
