ply
format ascii 1.0
comment PCL generated
element vertex 1422
property float x
property float y
property float z
element camera 0
property float view_px
property float view_py
property float view_pz
property float x_axisx
property float x_axisy
property float x_axisz
property float y_axisx
property float y_axisy
property float y_axisz
property float z_axisx
property float z_axisy
property float z_axisz
property float focal
property float scalex
property float scaley
property float centerx
property float centery
property int viewportx
property int viewporty
property float k1
property float k2
end_header
0.18016446 0.26852366 1.987667
0.16592075 0.26778269 1.9829221
0.15250295 0.26836121 1.9879607
0.12523694 0.26897642 1.993811
0.11100526 0.26795331 1.9867011
0.097069308 0.26745555 1.983451
0.08318311 0.26695347 1.980105
0.070105992 0.26936197 1.9984566
0.042247415 0.26807168 1.9893149
0.18119544 0.25619683 2.0003211
0.16482194 0.25235379 1.970861
0.1530003 0.2554152 1.9956802
0.13838078 0.25395009 1.9848002
0.12478115 0.25423992 1.9876779
0.11120333 0.25465158 1.9914538
0.097627558 0.25518501 1.9961292
0.083455943 0.25408012 1.9878274
0.069644198 0.25385115 1.9863664
0.05582865 0.25349236 1.98382
0.042469054 0.25564447 2.0010157
0.18617949 0.23130195 1.9088261
0.17280652 0.23111391 1.9080733
0.15468778 0.39796829 2.0029314
0.056726325 0.39694506 2.0011201
0.16805017 0.38260314 1.9966632
0.14052556 0.38347995 2.0026877
0.098125264 0.38139784 1.9933599
0.07068982 0.3831473 2.0033462
0.18219109 0.36912173 1.9999918
0.1671249 0.35280395 1.9889358
0.084448203 0.35448781 2.0019515
0.18127222 0.33952144 1.993055
0.12526654 0.33809537 1.9874042
0.1122373 0.3404671 2.0019958
0.084275275 0.33987796 1.9993969
0.056378286 0.33910099 1.9954287
0.042299192 0.33729142 1.9849216
0.22721189 0.18656966 1.6264861
0.21608675 0.18673888 1.6289831
0.20456988 0.18656957 1.6284466
0.19214278 0.18550168 1.6199344
0.25996497 0.19099471 1.7737514
0.23742546 0.32658178 1.9964839
0.22161309 0.32380065 1.9803946
0.19517334 0.32570508 1.9940399
0.26570591 0.31321815 1.9991547
0.23797354 0.31339461 2.0025914
0.33671731 0.30048561 2.0017314
0.32190883 0.2997227 1.9981197
0.23759213 0.29897362 2.000752
0.20955347 0.29868677 2.0008526
0.19397373 0.29613054 1.9845104
0.29301399 0.28480908 1.9955028
0.27906069 0.28476155 1.9964739
0.26433206 0.2838763 1.9914578
0.25078878 0.28423658 1.9951795
0.23546946 0.28250825 1.9840577
0.22205992 0.28299862 1.9885703
0.19547077 0.28452328 2.0012691
0.2655789 0.27128884 2.0021925
0.25098985 0.27057463 1.9980553
0.23693356 0.27038473 1.9977516
0.2079486 0.26880154 1.9879788
0.19457653 0.26939246 1.993297
0.32111415 0.25722542 1.9969708
0.30745268 0.25744119 2.0000956
0.29247764 0.25652528 1.9942917
0.27827755 0.2562317 1.993292
0.26475197 0.25656098 1.9971105
0.25143248 0.25713742 2.0028079
0.23619291 0.25570273 1.9926518
0.22339633 0.25689888 2.0030911
0.20882967 0.25608316 1.9976603
0.19425237 0.25513753 1.9911381
0.33500415 0.24328516 1.9964398
0.30619204 0.24251191 1.9929701
0.27372569 0.23840187 1.9615518
0.26003748 0.23835641 1.9623885
0.24316092 0.23522156 1.9375126
0.22907221 0.2345743 1.9332089
0.21636391 0.23534799 1.9406476
0.20223309 0.23457433 1.9351643
0.33492956 0.22931619 1.9970723
0.32066345 0.22906522 1.9963661
0.33533937 0.21566494 2.0005517
0.32121286 0.2155343 2.0008283
0.29781517 0.20888898 1.9400519
0.33509132 0.20158386 2.0000124
0.32113162 0.20155989 2.0012686
0.30088034 0.19740592 1.9611077
0.32088885 0.18749815 2.0006297
0.30154553 0.18417919 1.966346
-0.27013925 0.027996076 1.6242598
-0.27014768 0.016707873 1.6244124
-0.26836386 0.0053830105 1.6136342
-0.26966414 -0.0058597797 1.6215262
-0.26998493 -0.017149027 1.6234212
-0.26981375 -0.028413281 1.6222792
-0.3068932 -0.0064012646 1.7714254
-0.30231795 -0.018432505 1.7447307
-0.30230835 -0.030558206 1.7445636
-0.26904362 -0.043184344 1.7689139
-0.28417242 -0.043623462 1.7857994
-0.27143013 0.17558458 1.6260703
-0.26905939 0.16280739 1.6125017
-0.27074131 0.15251122 1.6233994
-0.27063397 0.14114136 1.6234182
-0.27068472 0.1298563 1.6243427
-0.27089375 0.11863631 1.6261742
-0.27077371 0.1072685 1.6259602
-0.26999965 0.095678963 1.6217284
-0.27052087 0.084559001 1.625299
-0.27120057 0.073438376 1.6297804
-0.26895094 0.061590131 1.6164383
-0.26815942 0.05020288 1.6118892
-0.27175191 0.039519325 1.6338947
-0.10994795 0.027459338 1.6046412
-0.12092547 0.02743783 1.6028563
-0.13204618 0.027449697 1.6029902
-0.14379092 0.027579416 1.6100192
-0.1548783 0.027573485 1.6090002
-0.1659583 0.027567117 1.6079057
-0.17637955 0.027458997 1.600772
-0.18717209 0.027418032 1.5975447
-0.19951499 0.027596081 1.6071465
-0.21070948 0.027604865 1.606739
-0.22204313 0.027630087 1.6072451
-0.23268183 0.027570551 1.6027236
-0.24580319 0.027797204 1.61494
-0.25723231 0.027821057 1.6152008
-0.11008687 0.016407743 1.606786
-0.12078028 0.016354544 1.6010112
-0.13180645 0.016351543 1.6001498
-0.14379549 0.016459223 1.6101694
-0.15478833 0.016445598 1.6081551
-0.16606525 0.016461959 1.6090505
-0.17746992 0.016488137 1.610862
-0.18810005 0.016443511 1.6056403
-0.19878908 0.016408723 1.6013418
-0.21058729 0.016464334 1.6058977
-0.22150786 0.016449185 1.6034327
-0.23283145 0.016463988 1.6038636
-0.24625808 0.016619366 1.6180578
-0.2566171 0.016563196 1.6114012
-0.11035943 0.0053346273 1.610851
-0.12108023 0.0053173718 1.605074
-0.13262163 0.0053360253 1.6101904
-0.14300473 0.0053087929 1.6012788
-0.15412639 0.005310921 1.601261
-0.16484751 0.0052998862 1.5971874
-0.17682183 0.0053279977 1.6049721
-0.18821825 0.0053364038 1.6067079
-0.19964643 0.0053447229 1.6083639
-0.21071938 0.0053431555 1.6069638
-0.22151133 0.0053349771 1.603507
-0.23482756 0.005385472 1.6177952
-0.24506935 0.0053640688 1.6102223
-0.25615364 0.0053621684 1.6085129
-0.11015627 -0.0057684723 1.6078564
-0.12130373 -0.0057710493 1.6080642
-0.13213371 -0.0057593565 1.6042086
-0.14291658 -0.0057475786 1.6002811
-0.15412635 -0.0057534263 1.6012595
-0.16555934 -0.0057662656 1.6041496
-0.17671329 -0.0057683853 1.6039765
-0.18810293 -0.0057774927 1.6057132
-0.19879214 -0.0057652714 1.6014147
-0.20981772 -0.0057635801 1.6000206
-0.22191793 -0.0057900981 1.6064777
-0.23383124 -0.0058094379 1.610865
-0.24432394 -0.0057933293 1.6052767
-0.25584197 -0.0058018775 1.6065356
-0.11001906 -0.016840748 1.6057838
-0.12115272 -0.016848285 1.6059924
-0.1318063 -0.016793393 1.6001452
-0.14317857 -0.016831476 1.6031924
-0.15469326 -0.016879633 1.6071551
-0.1660651 -0.016906792 1.6090462
-0.17714433 -0.016902626 1.6078755
-0.18821514 -0.016898192 1.606629
-0.19964311 -0.016924534 1.6082846
-0.21084468 -0.016929915 1.6078764
-0.22204988 -0.01693503 1.6073909
-0.23325819 -0.016939882 1.6068283
-0.2455125 -0.017016793 1.6131094
-0.25708428 -0.017041748 1.6143599
-0.11008319 -0.027936485 1.6066287
-0.1212978 -0.027966157 1.6078341
-0.1322899 -0.02794385 1.6059722
-0.14335015 -0.027938277 1.6050317
-0.15440355 -0.027932266 1.6040159
-0.16565298 -0.027960144 1.6049143
-0.17724709 -0.028039055 1.6087162
-0.18855482 -0.028066009 1.6094553
-0.19951469 -0.02804107 1.6071389
-0.21161073 -0.028170014 1.6136723
-0.22258502 -0.028144179 1.6111999
-0.23339306 -0.028100802 1.6076643
-0.24401405 -0.028039884 1.6030682
-0.2575435 -0.028303919 1.6171683
-0.11129642 -0.039452471 1.6243539
-0.12248398 -0.039445855 1.6235563
-0.13545437 -0.039966382 1.6446031
-0.14792456 -0.04027022 1.6565861
-0.16094393 -0.040669207 1.6724561
-0.17327136 -0.040851612 1.6792752
-0.18754309 -0.041440748 1.7028989
-0.19926383 -0.041429888 1.7015795
-0.21268339 -0.041753758 1.7140713
-0.2430425 -0.042925682 1.7605326
-0.25600854 -0.043055382 1.7647703
-0.11032297 0.18309392 1.6035485
-0.12148728 0.18317571 1.6037489
-0.13257825 0.18314248 1.6028823
-0.14287166 0.18209788 1.5930319
-0.15445679 0.18273139 1.5979548
-0.16581151 0.18302572 1.5998288
-0.17676607 0.18286912 1.5976721
-0.18838887 0.18338151 1.6013637
-0.1995834 0.18344311 1.6010269
-0.21039656 0.18316616 1.5976567
-0.22117288 0.18288657 1.5942149
-0.11021584 0.17181687 1.6027755
-0.12122063 0.17168304 1.6009942
-0.13204379 0.17133597 1.5971562
-0.14343554 0.17172331 1.6001798
-0.15402223 0.17116041 1.5942138
-0.16565041 0.17175277 1.5990611
-0.17691897 0.17192128 1.5998706
-0.18855141 0.17240261 1.6035646
-0.19939002 0.17214489 1.6002665
-0.21057799 0.17220008 1.5998547
-0.22244614 0.17277806 1.6042916
-0.23367468 0.17282772 1.6037207
-0.24445948 0.17255965 1.6001221
-0.25567257 0.17260411 1.5993989
-0.11003938 0.16046025 1.6009316
-0.12110076 0.16043359 1.600143
-0.13239993 0.16070002 1.6022547
-0.14329371 0.16047126 1.5993313
-0.15386935 0.15994459 1.5933628
-0.16518208 0.16020341 1.5952455
-0.17761068 0.16144401 1.606941
-0.18848096 0.16120523 1.6037145
-0.19907165 0.16076732 1.5984403
-0.21062766 0.16111405 1.6009918
-0.2216865 0.16106476 1.599517
-0.23259291 0.16091476 1.596982
-0.24466564 0.16154853 1.6022453
-0.25526583 0.1611971 1.5975895
-0.11006391 0.14941205 1.6019886
-0.12120214 0.14947896 1.602193
-0.13234818 0.14954349 1.6023209
-0.14350152 0.14960562 1.6023719
-0.15437734 0.14939028 1.5993729
-0.1652187 0.14917269 1.5963006
-0.17732503 0.15005285 1.6050347
-0.18783207 0.14955562 1.5988417
-0.19948117 0.14997248 1.6024641
-0.21093129 0.15020362 1.6040279
-0.22173528 0.14997451 1.600578
-0.23307036 0.15010938 1.6009989
-0.24427275 0.15015034 1.6003557
-0.25734437 0.15128663 1.611438
-0.11049244 0.13886666 1.6089348
-0.1211528 0.13833369 1.6021813
-0.1327004 0.13881822 1.6072755
-0.14370717 0.13870579 1.6053399
-0.15450397 0.13842139 1.601346
-0.16576058 0.13855943 1.6022366
-0.17660309 0.13835575 1.5990872
-0.18810087 0.13865915 1.6018035
-0.19903457 0.13853608 1.5994937
-0.21058857 0.13883497 1.6020504
-0.22123903 0.13853806 1.5976146
-0.23368655 0.13934107 1.6059299
-0.24521585 0.1395483 1.6072534
-0.25646296 0.13958389 1.6065269
-0.11037832 0.12760758 1.607855
-0.12132486 0.12742996 1.6050757
-0.1322384 0.12725039 1.602223
-0.14338253 0.12730332 1.6022762
-0.15443861 0.12727608 1.6012601
-0.16599533 0.12763742 1.6051277
-0.17674506 0.12737185 1.6009843
-0.18802147 0.12749478 1.6017214
-0.19943801 0.12769374 1.6033694
-0.21062845 0.12773454 1.6029596
-0.22290593 0.12839742 1.6103746
-0.23458365 0.128668 1.612763
-0.24436854 0.127923 1.6022527
-0.25604424 0.12818964 1.6044868
-0.11012715 0.11622685 1.6047072
-0.12164393 0.11663573 1.6098862
-0.13185537 0.11582938 1.5980827
-0.14296746 0.11587775 1.598139
-0.15408635 0.11592428 1.598119
-0.16541468 0.1161116 1.6000069
-0.17710105 0.11651094 1.6047902
-0.18759358 0.11612411 1.5985901
-0.19947271 0.11659089 1.6042027
-0.21053635 0.11655687 1.6028043
-0.22091287 0.11616495 1.5963891
-0.2324913 0.1164123 1.5987935
-0.24515545 0.11715594 1.6080188
-0.25639975 0.11718578 1.6072941
-0.11028004 0.10528249 1.6074536
-0.1212166 0.10513574 1.604673
-0.13236395 0.10518111 1.604803
-0.14334244 0.10509565 1.6028682
-0.15430053 0.10500856 1.6008589
-0.16564423 0.10517801 1.6027468
-0.17734595 0.10553923 1.6075312
-0.18854472 0.10557616 1.6072748
-0.19962621 0.10554695 1.6059506
-0.21082704 0.10558059 1.6055406
-0.22135411 0.10529039 1.6001098
-0.23281236 0.10544966 1.6015254
-0.24504501 0.10592921 1.6077933
-0.25597286 0.10582746 1.6050982
-0.1103636 0.094248086 1.6091303
-0.12115958 0.094001226 1.6043571
-0.13287055 0.094446145 1.6114529
-0.1431869 0.093907595 1.6015586
-0.15403809 0.093771957 1.5985562
-0.16556628 0.094039015 1.6024334
-0.17650396 0.093958192 1.600274
-0.18811086 0.094222128 1.6039903
-0.19965467 0.094426773 1.6066327
-0.21021338 0.094168514 1.6012729
-0.22179203 0.094370142 1.6037577
-0.2327031 0.094282039 1.6012187
-0.24373889 0.094250172 1.5995938
-0.25476325 0.094216876 1.5978931
-0.109904 0.08278773 1.6027606
-0.12050475 0.082468063 1.5959972
-0.13150582 0.082452953 1.5951376
-0.14285286 0.08264035 1.5981822
-0.15443717 0.08292824 1.603135
-0.16538405 0.08285822 1.6010503
-0.17685169 0.083041504 1.6038556
-0.18778913 0.082968883 1.6016194
-0.19870414 0.082895003 1.5993093
-0.2106262 0.083226867 1.6048487
-0.22127801 0.083048671 1.6004055
-0.23273245 0.083174355 1.6018239
-0.24481252 0.08350198 1.6071113
-0.25604117 0.083523273 1.60639
-0.11045776 0.072081223 1.6112614
-0.12118863 0.071848363 1.6054885
-0.13152051 0.071437821 1.5956626
-0.14278074 0.071556039 1.5977131
-0.15426466 0.07176134 1.601674
-0.16631743 0.07218603 1.6105225
-0.1771967 0.072080046 1.6073638
-0.18815567 0.072017081 1.6051247
-0.19933613 0.072041191 1.6047946
-0.21026325 0.071976036 1.6024064
-0.22170901 0.072086059 1.6039035
-0.23332721 0.072238944 1.6063088
-0.24528657 0.072478682 1.6106064
-0.25482324 0.072012872 1.5990272
-0.11026529 0.060851369 1.6087242
-0.12134924 0.060841188 1.6079341
-0.13153313 0.060419261 1.5961125
-0.14349914 0.060817916 1.606127
-0.15427941 0.060692865 1.6021259
-0.16612998 0.060977407 1.6089886
-0.17667131 0.060775854 1.6028504
-0.18771262 0.060759936 1.6016073
-0.19923308 0.060892235 1.6042565
-0.21131337 0.061172627 1.6107874
-0.22173004 0.060967442 1.6043576
-0.23278017 0.060947731 1.6028073
-0.2438194 0.060927086 1.6011816
-0.25687233 0.061389495 1.6123128
-0.10993566 0.049598388 1.6041154
-0.12083744 0.049529009 1.6013341
-0.13219401 0.049642045 1.6044568
-0.14262961 0.049418483 1.5965476
-0.15400706 0.049529932 1.5995172
-0.16593985 0.049793098 1.6073781
-0.1765769 0.04965882 1.6022336
-0.18841895 0.049859274 1.6079414
-0.19912685 0.049753979 1.603642
-0.21055742 0.049830839 1.6052194
-0.22174756 0.049845941 1.6047356
-0.2342215 0.050134398 1.6130787
-0.24562714 0.050178301 1.6134195
-0.25642514 0.050099667 1.6097316
-0.11075508 0.038814496 1.6163851
-0.12106869 0.038547061 1.6046251
-0.13147071 0.038350251 1.59579
-0.14272682 0.038413748 1.5978432
-0.15411174 0.038500305 1.6008126
-0.16483186 0.03842032 1.5967399
-0.17734739 0.038742587 1.6094911
-0.18843092 0.038732436 1.6082436
-0.19901745 0.038626954 1.6029514
-0.21044192 0.038686659 1.60453
-0.22149043 0.038674727 1.6030568
-0.23267089 0.038685869 1.6024975
-0.24549352 0.038956594 1.6127353
-0.25675285 0.038966447 1.61201
0.034079228 0.027529839 1.6110101
0.022951206 0.027497144 1.6092052
0.011878564 0.027531683 1.6113237
0.00077518862 0.02746425 1.6073674
-0.010305366 0.02748098 1.6083348
-0.021385899 0.027480345 1.6082267
-0.032465395 0.027479263 1.6080428
-0.04354332 0.027477745 1.6077837
-0.054787301 0.027560374 1.6124451
-0.065692313 0.027473373 1.6070383
-0.07680957 0.027487438 1.6075509
-0.087828599 0.027467232 1.6059906
-0.098829776 0.027446596 1.6043557
0.034080315 0.016429637 1.61116
0.022937814 0.016400024 1.608355
0.011900848 0.016461035 1.6144735
0.00077569101 0.016400592 1.6085168
-0.010305695 0.016400477 1.6084843
-0.021386584 0.016400099 1.6083764
-0.032586381 0.016460044 1.6141911
-0.043571524 0.016408645 1.6089329
-0.054620884 0.016397374 1.6075984
-0.066098936 0.016496897 1.6171793
-0.076575689 0.016353857 1.6027066
-0.08793956 0.016412459 1.6081371
-0.0989547 0.01640014 1.6065011
0.034038961 0.0053220876 1.6092347
0.022952301 0.0053223087 1.609429
0.011857229 0.0053191688 1.608548
0.00077570329 0.0053192172 1.608591
-0.010324896 0.0053290064 1.6115583
-0.021413261 0.0053256089 1.6104503
-0.032446954 0.0053155734 1.6072669
-0.043625843 0.0053283796 1.6110063
-0.05475628 0.0053312727 1.61167
-0.065735899 0.0053209821 1.608261
-0.076482348 0.0052975114 1.6007825
-0.087616444 0.0053034243 1.6022202
-0.098590896 0.0052994313 1.6005867
0.034038953 -0.0057655242 1.6092333
0.022966418 -0.0057693115 1.6104274
0.011864526 -0.0057659103 1.6095465
0.000775703 -0.0057624145 1.6085896
-0.010318549 -0.0057694712 1.6105571
-0.021373747 -0.0057586939 1.6074491
-0.032426953 -0.0057549188 1.6062654
-0.043625828 -0.0057723392 1.6110047
-0.054655358 -0.0057648309 1.6086702
-0.065776333 -0.005767874 1.6092587
-0.07686048 -0.0057672746 1.608772
-0.088103183 -0.0057772235 1.6112055
-0.09913893 -0.0057728938 1.6095684
0.034143124 -0.01690471 1.6141547
0.022951916 -0.016853556 1.6093506
0.01186433 -0.016853983 1.6094693
0.0007785561 -0.016905997 1.6145122
-0.010331069 -0.016885139 1.6124797
-0.021360224 -0.016822517 1.6063719
-0.032526381 -0.016873714 1.6111873
-0.04365192 -0.016883148 1.611927
-0.054755367 -0.016881941 1.6115913
-0.066058412 -0.016932305 1.6161754
-0.076906487 -0.016868344 1.6096936
-0.088372156 -0.016938889 1.6161207
-0.098954611 -0.016843304 1.6064968
0.034079168 -0.027973758 1.6110024
0.023007663 -0.028009309 1.6131966
0.011885845 -0.027992826 1.6123159
0.00077614258 -0.027941499 1.6093596
-0.01030535 -0.027924113 1.6083273
-0.021372696 -0.027906269 1.6072193
-0.03248534 -0.027939565 1.6090351
-0.0436505 -0.027989592 1.6117741
-0.054518156 -0.027867254 1.6044432
-0.065853998 -0.027985139 1.6110268
-0.076903991 -0.027965048 1.6095408
-0.087828457 -0.027910143 1.605983
-0.099012285 -0.027940717 1.6073419
0.034161292 -0.03916863 1.6147718
0.02300654 -0.03912222 1.6129676
0.011907167 -0.039171245 1.6150861
0.00077897031 -0.039171603 1.6151294
-0.010336572 -0.039123293 1.6130971
-0.021476997 -0.039170429 1.6149881
-0.032563709 -0.03912086 1.6128045
-0.043621559 -0.039070666 1.6105458
-0.054683644 -0.039043862 1.6092112
-0.066012591 -0.0391845 1.6147934
-0.077278368 -0.039252467 1.6173009
-0.088310897 -0.039199755 1.6147391
-0.099433713 -0.039194439 1.6140987
0.034153018 0.18333615 1.6079228
0.022860071 0.18199721 1.596195
0.011875133 0.18289945 1.6042625
0.00077735109 0.18301331 1.6052994
-0.021432362 0.1830079 1.6051586
-0.043637969 0.18299076 1.6047144
-0.077023759 0.18316761 1.6054658
-0.098863192 0.18244855 1.5983123
0.034078103 0.17183365 1.605159
0.023035074 0.17226242 1.609331
0.0119146 0.17237216 1.6104447
0.00077754952 0.17195201 1.6065102
-0.010362059 0.17247798 1.6114498
-0.021424687 0.17184149 1.6053748
-0.032524291 0.17183481 1.6051909
-0.043595575 0.17171997 1.6039369
-0.054852575 0.17223486 1.6085711
-0.06597314 0.17221995 1.6081589
-0.076996192 0.17199151 1.6056844
-0.087988354 0.17176038 1.6031351
-0.099070683 0.17173731 1.6024971
0.034128092 0.16096905 1.6082836
0.02297009 0.16067977 1.6054934
0.011902876 0.16107836 1.6095926
0.00077582838 0.16048798 1.603665
-0.010326529 0.1607828 1.6066179
-0.021442967 0.16087775 1.6075046
-0.032512125 0.16067423 1.6053306
-0.043980777 0.16204622 1.6189977
-0.054697819 0.16065404 1.6047356
-0.066392779 0.1621193 1.6192393
-0.076967418 0.1608208 1.6058259
-0.088063382 0.16080174 1.6052631
-0.098972745 0.16048439 1.6016446
0.034177564 0.15006964 1.611335
0.023031648 0.14998399 1.6105345
0.01186909 0.14952852 1.6056752
0.00077457138 0.14916247 1.6017351
-0.010322503 0.14962068 1.6066812
-0.021421468 0.14961727 1.6065731
-0.032419588 0.1491522 1.6014111
-0.043481905 0.14914404 1.6011524
-0.054575715 0.14922528 1.6018131
-0.065963283 0.14994691 1.6093627
-0.076748602 0.14928879 1.6019121
-0.088191047 0.14991368 1.6083111
-0.098812401 0.14915915 1.5997198
0.034038231 0.13837045 1.6053479
0.022937691 0.13829111 1.604546
0.011835098 0.13803944 1.6016757
0.00077902607 0.13889123 1.6116825
-0.010343667 0.13880523 1.6106535
-0.021399619 0.13837679 1.6055634
-0.032506201 0.13845643 1.6063758
-0.043598071 0.13844882 1.6061162
-0.054620653 0.13826892 1.6037893
-0.065774985 0.13842696 1.60537
-0.076717339 0.13815764 1.6018977
-0.087831236 0.13822623 1.6023316
-0.099197812 0.13863257 1.606667
0.034065694 0.12738581 1.607251
0.022956213 0.12731282 1.6064489
0.011873842 0.12739427 1.6075643
0.0007744045 0.12700419 1.6026231
-0.010326638 0.12747282 1.6085719
-0.02133796 0.12692213 1.6014857
-0.032512452 0.12738666 1.6072829
-0.043740377 0.12777087 1.6120062
-0.054731943 0.12744883 1.607684
-0.065747201 0.12728126 1.6052806
-0.076779276 0.12718992 1.6037984
-0.08811821 0.12756586 1.6082141
-0.098912671 0.12715763 1.6025999
0.034071703 0.11630999 1.6080823
0.02293204 0.11610047 1.6052849
0.011861349 0.11617485 1.6064012
0.00077454105 0.11596157 1.6034518
-0.010277738 0.11581785 1.6014245
-0.021328567 0.1158152 1.6013166
-0.032518186 0.11631078 1.608114
-0.043587346 0.11623293 1.6068573
-0.054674383 0.11622467 1.6065222
-0.065718368 0.11614308 1.6051146
-0.076981701 0.11641678 1.6086137
-0.087917566 0.11618869 1.6050626
-0.098625846 0.11574458 1.5984517
0.034077171 0.10522859 1.608838
0.022893375 0.10484511 1.6030459
0.011863252 0.10510633 1.6071559
0.00077418814 0.10484874 1.6032073
-0.010336461 0.10536513 1.611158
-0.021489907 0.10555662 1.6140431
-0.032523405 0.1052293 1.6088698
-0.043513954 0.10496497 1.60462
-0.054750368 0.10528064 1.609272
-0.065931015 0.1054007 1.6108547
-0.076946802 0.10526059 1.6083733
-0.087985687 0.10518342 1.606814
-0.099067584 0.10516918 1.6061759
0.034040228 0.094026491 1.6075221
0.022953153 0.094030388 1.6077166
0.011843077 0.093859278 1.6048405
0.00077668694 0.094091453 1.6088767
-0.010312586 0.094032981 1.607846
-0.02138772 0.093972981 1.6067395
-0.032488149 0.094027132 1.607554
-0.043520242 0.093906283 1.6052983
-0.054825503 0.094304331 1.611948
-0.065859675 0.094180465 1.6095409
-0.076957904 0.094170734 1.6090537
-0.088106483 0.094217293 1.6094878
-0.099386163 0.094377927 1.6118381
0.034023669 0.082898118 1.6071275
0.022998458 0.083105616 1.6113162
0.011844598 0.082801603 1.6054431
0.00077917409 0.083261535 1.6144747
-0.010345628 0.083209939 1.613443
-0.021403637 0.082952946 1.6083416
-0.032472339 0.082898676 1.6071591
-0.043525837 0.08284308 1.6059014
-0.054664455 0.082939193 1.607563
-0.065787263 0.082982942 1.6081501
-0.076967776 0.083076358 1.6096585
-0.088009663 0.083015434 1.6080983
-0.099033676 0.082953207 1.6064631
0.034215953 0.072221354 1.6166445
0.022986928 0.071959145 1.6108464
0.011867829 0.071872555 1.6089674
0.00077687431 0.071917422 1.6100096
-0.010308729 0.071828529 1.6079789
-0.021379715 0.071782656 1.6068718
-0.032495975 0.071868241 1.6086857
-0.043584339 0.07186427 1.6084262
-0.054603357 0.071770757 1.6060942
-0.065673336 0.071764477 1.6056838
-0.076976411 0.071977966 1.6101873
-0.088019542 0.071925201 1.6086268
-0.099288292 0.072047971 1.61098
0.034009837 0.060708161 1.6071086
0.023045627 0.061009739 1.6152964
0.011861674 0.060749598 1.6084207
0.00077790429 0.060899701 1.6124611
-0.010316068 0.060787119 1.6094306
-0.021447608 0.060897876 1.6123199
-0.032579064 0.060932867 1.6131349
-0.043534927 0.060705215 1.6068809
-0.054675873 0.06077563 1.6085435
-0.065639228 0.06065819 1.6051373
-0.076747544 0.060689274 1.6056497
-0.088136144 0.06090622 1.6110755
-0.098871663 0.060673796 1.6044515
0.034033507 0.049664583 1.608484
0.022920379 0.049605519 1.6066797
0.011877229 0.049729034 1.6107963
0.00077748927 0.049760055 1.6118391
-0.010316898 0.049698584 1.6098076
-0.02140983 0.04969744 1.6096994
-0.032461748 0.049634364 1.6075168
-0.043592043 0.049692731 1.6092557
-0.054612998 0.049628064 1.6069225
-0.065684929 0.049623717 1.6065121
-0.076800957 0.049649131 1.6070246
-0.087818764 0.049612645 1.6054647
-0.098879591 0.049605913 1.6048278
0.033993807 0.038533743 1.6067865
0.02290773 0.0385116 1.6059809
0.011856088 0.038560059 1.6080986
0.00077706156 0.038631648 1.6111408
-0.010330251 0.038655125 1.6121082
-0.021384871 0.038559262 1.6080015
-0.032483824 0.038581487 1.608817
-0.043782525 0.038769282 1.6165526
-0.054885563 0.038742773 1.6152167
-0.065770045 0.038596954 1.6088107
-0.07713674 0.03873536 1.6143156
-0.087932549 0.038588334 1.607762
-0.09894681 0.038559366 1.6061262
0.19057192 0.02768711 1.6132545
0.17956465 0.027711321 1.6155107
0.16833 0.027701322 1.6157033
0.15662165 0.027606411 1.6108422
0.14578886 0.027663108 1.6148607
0.13441473 0.027617978 1.6128278
0.12292407 0.027538583 1.6087219
0.11197612 0.027577078 1.6115179
0.1007482 0.027547501 1.6102481
0.089652717 0.027551303 1.6108978
0.078552909 0.027554663 1.6114715
0.067449316 0.027557582 1.6119697
0.056273289 0.027526226 1.6103935
0.04509405 0.027477497 1.6077411
0.19092657 0.016553715 1.6163849
0.17957033 0.016537936 1.6156616
0.16802739 0.016501728 1.6128701
0.15643489 0.016455162 1.6090018
0.14508098 0.016428486 1.6070434
0.13483031 0.016532667 1.6179609
0.1233053 0.016485296 1.6138574
0.11232298 0.016508278 1.6166558
0.10075141 0.016440175 1.6103982
0.089655571 0.016442446 1.6110479
0.078555413 0.01644445 1.6116215
0.06745147 0.016446194 1.6121199
0.056378856 0.01645777 1.6135416
0.045234334 0.016448885 1.6128887
0.19069713 0.005362343 1.6144732
0.17891656 0.0053441501 1.6097722
0.16751678 0.0053356714 1.6079711
0.15720421 0.0053630769 1.6170392
0.14561763 0.0053478885 1.6130936
0.13458565 0.0053522391 1.6150459
0.12323178 0.0053434172 1.6129348
0.11225609 0.0053508705 1.6157329
0.10106225 0.0053484216 1.6154629
0.089712031 0.0053360653 1.6121206
0.078556657 0.0053334427 1.611696
0.067452542 0.005334008 1.6121941
0.056345161 0.0053344877 1.6126165
0.045207284 0.0053316057 1.6119634
0.1912781 -0.0058268337 1.6194378
0.17891648 -0.0057894238 1.6097708
0.16772203 -0.0057873228 1.609959
0.15672487 -0.005792215 1.6120609
0.14535038 -0.005782844 1.6101038
0.13450335 -0.0057946434 1.6140479
0.12338267 -0.00579572 1.6149275
0.1121874 -0.0057931598 1.6147339
0.10100036 -0.005790506 1.6144633
0.089767039 -0.0057842126 1.6131175
0.078604855 -0.0057813711 1.6126932
0.067990817 -0.0058245515 1.6251814
0.056241371 -0.005768314 1.6096169
0.045207266 -0.0057758349 1.6119618
0.19115879 -0.017021723 1.6183666
0.17989843 -0.017015874 1.6186389
0.16884838 -0.017030459 1.6208227
0.15748914 -0.017013717 1.6199458
0.14570427 -0.016944919 1.6140107
0.13441889 -0.016927615 1.6129736
0.12345611 -0.016951486 1.6158472
0.11225422 -0.016944002 1.6156538
0.100875 -0.016905151 1.6123897
0.089820586 -0.016917849 1.6140383
0.078603566 -0.01689918 1.6126159
0.067658432 -0.016942443 1.6171106
0.056344215 -0.016892122 1.6125376
0.045262057 -0.016903736 1.6138837
0.19138505 -0.028253647 1.6201985
0.18000205 -0.0282268 1.6194783
0.16853499 -0.02818233 1.6176846
0.15671726 -0.028068732 1.6118298
0.14552142 -0.028057657 1.6118652
0.13449679 -0.028080491 1.6138167
0.12345209 -0.028102888 1.6156936
0.11238789 -0.028124839 1.6174951
0.10130466 -0.028146356 1.6192219
0.089872703 -0.028064309 1.6148834
0.078938551 -0.028136484 1.6194534
0.067532018 -0.028036328 1.6139601
0.056411549 -0.028038846 1.614383
0.045177281 -0.027972147 1.6107322
0.17977452 -0.039378088 1.6172601
0.16842422 -0.039339934 1.6164598
0.15728474 -0.039349101 1.6175708
0.14640495 -0.039429612 1.6215934
0.13498381 -0.039365586 1.619565
0.1232952 -0.039204948 1.61347
0.11231378 -0.039259605 1.6162679
0.10129973 -0.039313648 1.6189919
0.090143494 -0.039319068 1.6196449
0.078693613 -0.039179821 1.6142306
0.067735754 -0.039280012 1.6187252
0.056547139 -0.039259531 1.6181502
0.045286138 -0.039166369 1.6145006
0.18392065 -0.051731225 1.6547073
0.17364746 -0.052082684 1.6668596
0.16350429 -0.052525867 1.6819344
0.1519165 -0.052537274 1.6830101
0.14221326 -0.053256303 1.7069182
0.130606 -0.053327806 1.7098417
0.12033822 -0.054014735 1.7326301
0.11208141 0.18342623 1.6064165
0.089791939 0.18336698 1.606802
0.07877101 0.1836134 1.6093615
0.067512549 0.18329608 1.6068823
0.056429736 0.18342455 1.6082983
0.045302909 0.1834379 1.6086452
0.19126332 0.17344797 1.6132605
0.17999655 0.17338814 1.6135387
0.1683251 0.17290467 1.6097831
0.15786152 0.17368138 1.6178219
0.14578442 0.17266591 1.6089563
0.1352319 0.17343746 1.61685
0.12337285 0.17252144 1.6088102
0.11252104 0.17297183 1.6135825
0.1009922 0.17236602 1.6083568
0.089924663 0.17249493 1.6100008
0.07869482 0.17230497 1.6085899
0.067529753 0.17221764 1.6080952
0.056409601 0.17223296 1.608518
0.045286756 0.17224553 1.608865
0.19119255 0.1621833 1.6134173
0.18047619 0.16261953 1.6186401
0.16816008 0.16157654 1.6089448
0.15780331 0.16240175 1.6179783
0.14626364 0.16204271 1.6150521
0.13534623 0.16237067 1.6189871
0.12325159 0.16121803 1.607965
0.11241079 0.16163941 1.6127391
0.10101632 0.16126975 1.6094949
0.090056017 0.16158758 1.613127
0.078713626 0.1612127 1.6097275
0.067545906 0.16113099 1.6092323
0.056492168 0.16134259 1.6116443
0.045269869 0.16105849 1.6090074
0.1802976 0.1512391 1.6177317
0.16819735 0.15045129 1.6100091
0.15726402 0.1506695 1.613101
0.14611828 0.15070198 1.614136
0.13463703 0.15036517 1.6111252
0.12365578 0.15057638 1.6139914
0.11257297 0.15069355 1.6157905
0.1009771 0.15007406 1.6095636
0.08991126 0.15018639 1.6112087
0.078683063 0.15002094 1.6097949
0.067726396 0.15040399 1.6142734
0.056435734 0.15005009 1.6107168
0.045252275 0.14987737 1.609073
0.19057772 0.13933277 1.6095401
0.17924176 0.1391996 1.6088215
0.16802695 0.1391491 1.6090153
0.15720074 0.13943608 1.613099
0.14605951 0.1394662 1.6141336
0.13491134 0.13949411 1.6150918
0.12383214 0.13960484 1.6169679
0.11191056 0.13869357 1.6068405
0.10136865 0.13947974 1.6165162
0.09020476 0.13949886 1.6171697
0.079132877 0.13968581 1.6197375
0.067616403 0.13902028 1.612275
0.056032915 0.13792723 1.5997534
0.04528942 0.13887279 1.6110537
0.19038172 0.12803648 1.6084723
0.18015034 0.12869488 1.6176606
0.16928941 0.12896104 1.6218266
0.15790099 0.12883468 1.6209587
0.14608739 0.12831552 1.6150471
0.13477276 0.1281849 1.6140184
0.12317736 0.12773953 1.6089354
0.11241208 0.12815206 1.6147108
0.10058489 0.12731145 1.6044945
0.089727245 0.12764178 1.6091247
0.078955375 0.12820481 1.6166694
0.067463934 0.12759247 1.6092014
0.056389201 0.1276821 1.6106201
0.045159426 0.12737851 1.6069807
0.19041488 0.11690385 1.609308
0.17919776 0.1168633 1.6095774
0.16798575 0.11682092 1.6097699
0.1568751 0.11684803 1.610878
0.14575703 0.11687331 1.6119105
0.13430323 0.1166113 1.6088907
0.12365136 0.11706114 1.6157367
0.11222604 0.11679536 1.6125618
0.10091154 0.11659905 1.610303
0.089523077 0.11625802 1.6059741
0.078728355 0.11670063 1.6125245
0.067144848 0.11592723 1.6020612
0.056364574 0.11650908 1.6104563
0.045195136 0.11637475 1.608809
0.19056116 0.10583014 1.6110585
0.17955425 0.10592253 1.6133125
0.16832016 0.10588425 1.6135069
0.15747479 0.10610246 1.617597
0.14542425 0.1054799 1.608694
0.13432464 0.1055011 1.6096483
0.12336947 0.10564978 1.6125169
0.11306727 0.10644273 1.6252673
0.10080408 0.10536087 1.6090685
0.089922383 0.10563377 1.6137041
0.078451842 0.10519432 1.6073027
0.06761077 0.10559314 1.6137823
0.056269925 0.10521483 1.6082217
0.045230135 0.10535183 1.6105628
0.19093679 0.09485323 1.6147172
0.17914246 0.094531961 1.6100278
0.16824166 0.094670862 1.6131982
0.15701835 0.094635122 1.6133142
0.14562312 0.094482377 1.6113645
0.1345906 0.094559133 1.6133151
0.1233118 0.094461106 1.6122046
0.11198565 0.094303742 1.6100199
0.10100403 0.094433807 1.6127388
0.089605309 0.0941578 1.6084059
0.078752324 0.094458275 1.6139653
0.067413613 0.094179198 1.6094774
0.056485463 0.094476722 1.6148882
0.045181163 0.09413673 1.6092479
0.19026408 0.083372928 1.6093746
0.17927459 0.083445832 1.6116275
0.16775006 0.083262846 1.6088388
0.15742162 0.083689705 1.6178982
0.14546366 0.083249323 1.6099817
0.13444334 0.083317034 1.6119317
0.12325212 0.083281517 1.6118152
0.11199999 0.083193682 1.6106256
0.10107882 0.083359413 1.6143421
0.08945176 0.082911961 1.606019
0.078473225 0.083024055 1.6085869
0.067505047 0.083185837 1.6120778
0.056285277 0.083040267 1.6095062
0.045353506 0.083352447 1.6158422
0.19051754 0.072323039 1.6118898
0.17973211 0.072474465 1.6161308
0.16869225 0.072536588 1.6183126
0.15705587 0.072332807 1.6144534
0.14601411 0.072392642 1.616482
0.13454062 0.072230615 1.6134578
0.12326592 0.072155699 1.6123453
0.11221843 0.072212093 1.6141449
0.10090464 0.072090685 1.6118815
0.089681871 0.072012253 1.6105369
0.078771278 0.072197758 1.6151024
0.067471236 0.072028652 1.6116095
0.05622245 0.071858339 1.6080379
0.045108777 0.071819432 1.6073854
0.1910004 0.06131709 1.6163152
0.17963983 0.061258666 1.6155938
0.16809261 0.061124627 1.6128051
0.1562084 0.060840268 1.6059566
0.14531575 0.060928144 1.6089752
0.1342245 0.060940411 1.6099287
0.1232023 0.060989074 1.6118033
0.11236649 0.061148837 1.6165935
0.10085252 0.060934085 1.6113381
0.089800552 0.060979847 1.6129861
0.078634232 0.060949914 1.6125628
0.067353539 0.060806867 1.6090677
0.056297038 0.060849704 1.6104882
0.04519641 0.060854189 1.6108342
0.19113174 0.050162323 1.6176883
0.18020117 0.050236583 1.6209413
0.168106 0.049974483 1.6131842
0.15727507 0.050077673 1.6172779
0.14568353 0.049935941 1.6133353
0.13407072 0.049762823 1.6083143
0.1232876 0.049894203 1.6131779
0.11182632 0.049749978 1.6089956
0.10086058 0.049818721 1.6117158
0.089367516 0.049611747 1.6053799
0.078447662 0.049709454 1.6089472
0.067358956 0.049714722 1.6094447
0.056301545 0.049749739 1.6108651
0.045200039 0.049753409 1.6112115
0.19114386 0.038967852 1.6179923
0.17922783 0.038812283 1.6123023
0.16719298 0.038608633 1.6045372
0.15632664 0.038665045 1.6076305
0.14480229 0.038554892 1.6036805
0.13465507 0.038823541 1.6155903
0.12344638 0.038807027 1.6154741
0.11183345 0.038647547 1.6092969
0.10080522 0.038677227 1.6110201
0.089593373 0.038635097 1.6096736
0.078597359 0.038687281 1.6122442
0.067446075 0.038667638 1.6117437
0.056339756 0.038671117 1.6121662
0.045147415 0.038602747 1.6095146
-0.026518615 -0.062105704 1.9974674
0.22645952 0.027983077 1.6278327
0.21316701 0.027721807 1.6134769
0.20192556 0.027713116 1.6139009
0.22742219 0.016770581 1.6349193
0.213563 0.016574403 1.6166025
0.20205492 0.016549082 1.6150445
0.22769873 0.0054457439 1.6369762
0.2133068 0.0053690565 1.6146942
0.20205808 0.0053673759 1.6151191
0.2279717 -0.0059065572 1.6389562
0.21369597 -0.0058270204 1.6176673
0.20279589 -0.0058358195 1.6210719
0.22906007 -0.017347815 1.6468017
0.21408176 -0.01706364 1.6205637
0.20230068 -0.01701696 1.6170244
0.23096377 -0.028999906 1.6605114
0.21407489 -0.028288834 1.6204091
0.20266312 -0.028262893 1.6198471
0.23108923 -0.040529817 1.6612648
0.21419436 -0.039536629 1.6211691
0.20253038 -0.039452486 1.6186237
0.19160822 -0.039511446 1.6219532
0.21495903 -0.050949875 1.6268075
0.20509961 -0.051303249 1.639147
0.19368736 -0.051286839 1.639515
0.2276777 0.17560795 1.6306759
0.21471652 0.17429535 1.6193728
0.20302562 0.17392571 1.6168519
0.22732241 0.16400744 1.6288779
0.21411946 0.16258262 1.61559
0.20270525 0.16243348 1.6150377
0.22560035 0.15152435 1.6171348
0.21416666 0.1513879 1.6166611
0.20176755 0.15051618 1.6082021
0.19181499 0.15147434 1.6194305
0.22551012 0.14022757 1.6171432
0.21421051 0.14018606 1.6176555
0.20316006 0.14031205 1.6200677
0.22582549 0.12917177 1.6200367
0.21463992 0.12921168 1.6215394
0.20319855 0.12909353 1.6209865
0.22586462 0.11794031 1.6208797
0.21338083 0.11726438 1.6124923
0.20151368 0.11687127 1.607971
0.22521818 0.10638113 1.6167032
0.21484073 0.10680077 1.6241384
0.20363472 0.10683221 1.6255655
0.22484085 0.095000058 1.6144238
0.21331517 0.094856508 1.61295
0.20354085 0.095518924 1.6252655
0.22500567 0.083858661 1.6160229
0.21399061 0.083935529 1.6185102
0.2020915 0.083654962 1.6139853
0.22571288 0.072875947 1.6215051
0.21375491 0.072634116 1.6170634
0.20248272 0.072611444 1.6174923
0.22546132 0.061560974 1.6199841
0.21351577 0.061356433 1.6155391
0.2027479 0.061486386 1.6199328
0.22629802 0.050513994 1.6263068
0.21353267 0.050163973 1.6159195
0.20251802 0.050209269 1.6183304
0.22481085 0.038980693 1.6157191
0.21289746 0.038850754 1.6112672
0.20154712 0.038814861 1.6106976
0.25931096 0.1782071 1.7700884
0.25994012 0.1663025 1.7752043
0.259707 0.15382746 1.7743247
0.26047158 0.14191811 1.7802652
0.26008722 0.12936473 1.77823
0.26671368 0.12000222 1.8245
0.26675147 0.10735898 1.8252755
0.26707152 0.094812334 1.8279415
0.26939249 0.082850695 1.8443645
0.2682721 0.069773704 1.8369741
0.27001214 0.057411265 1.8492776
0.26788038 0.044244166 1.8347844
0.27562898 0.032442369 1.888478
0.27377522 0.019230571 1.8757895
0.27621496 0.006292549 1.892701
0.27564177 -0.0068027014 1.8887405
0.27936217 -0.020153284 1.9143798
0.27949649 -0.033428114 1.9151866
0.30614769 -0.048828229 2.0019178
0.3347427 0.17356004 1.9996246
0.31516126 0.1704904 1.9654523
0.30160695 0.17055078 1.967556
0.29821703 0.15512155 1.9460036
0.29946762 0.14220305 1.9549048
0.30416179 0.13065042 1.9864134
0.33316535 0.11737612 1.9927696
0.30435476 0.11694288 1.9882449
0.30397666 0.089251012 1.9866892
0.30597913 0.062110901 2.0005662
0.30629838 0.048297204 2.0029192
0.30601281 0.034386624 2.0012245
-0.27242589 0.1989973 1.6303777
-0.27249792 0.18766263 1.6316968
-0.1102257 0.19403276 1.6012713
-0.12115723 0.1937629 1.5985008
-0.13189366 0.19325243 1.5936784
-0.14300907 0.19333325 1.5937302
-0.1537526 0.19293579 1.5897516
-0.16454965 0.19265427 1.5866897
-0.17650232 0.19367613 1.5944128
-0.18799357 0.19410089 1.5971162
-0.19904317 0.19404767 1.595796
-0.21046895 0.19434747 1.5973541
-0.22111402 0.19393243 1.5929295
-0.23213427 0.1938704 1.5913832
-0.24344124 0.19404258 1.5917256
-0.25585195 0.19504112 1.5988535
-0.23432623 0.18450534 1.6074213
-0.2451421 0.1842199 1.6038195
-0.25607523 0.18404362 1.6011277
-0.15243903 0.39720616 1.9991647
-0.18041994 0.36949107 2.0021248
0.012563839 0.20524873 1.6972996
0.0008214534 0.20513161 1.6963525
-0.010799739 0.20298846 1.6784461
-0.022135964 0.20048524 1.6574841
-0.033284977 0.19857383 1.6414106
-0.044321615 0.19713531 1.6292343
-0.055058632 0.19521801 1.6130162
-0.066382393 0.19567694 1.6165707
-0.077144407 0.19458647 1.6071537
-0.088158026 0.19432566 1.6046066
-0.10029446 0.19632109 1.6208149
-0.010384741 0.18402193 1.6142098
-0.032695536 0.18389839 1.6129222
-0.055174205 0.18443629 1.6172894
-0.066198528 0.18397161 1.6129035
-0.088775478 0.18449178 1.6168091
0.036463212 0.20761473 1.7168217
0.024572855 0.20750426 1.716037
0.18006033 0.18465433 1.6133054
0.16858985 0.18436372 1.6115307
0.15782158 0.18485433 1.6165991
0.14636959 0.18455788 1.6146684
0.13536179 0.1848188 1.6176096
0.12394395 0.18451643 1.6155223
0.10115167 0.18379053 1.6101185
0.028757876 0.32620063 2.0032113
-0.012914255 0.32604992 2.0023861
-0.02681304 0.32620203 2.0032375
-0.096102081 0.32560995 1.9981805
0.00097143342 0.31197342 2.0026278
0.014788812 0.29688227 1.9957517
-0.012898139 0.29790512 2.0026896
-0.040633567 0.29788694 2.0023246
-0.095934749 0.29735619 1.9974948
0.028675249 0.28370506 2.0015428
-0.012896103 0.28399131 2.003685
-0.054169398 0.28228733 1.9911164
-0.081804402 0.28252175 1.9921683
-0.095636792 0.2826322 1.9925524
0.028642097 0.26954028 2.000458
0.014762022 0.26875189 1.9946593
0.00096811663 0.26941696 1.9996687
-0.012836925 0.26888499 1.9956638
-0.026665708 0.26914394 1.9975113
-0.040301181 0.26794091 1.9883631
-0.054293495 0.26911888 1.9969586
-0.06827151 0.26976246 2.0014946
-0.08178997 0.26867935 1.9930586
-0.09552566 0.26851946 1.9914633
-0.1081109 0.26557383 1.9689909
0.028453533 0.25402009 1.9883624
0.014708226 0.25402647 1.9885095
0.00096173992 0.25390303 1.9875711
-0.02658182 0.25452429 1.9923567
-0.040472839 0.25526893 1.9980794
-0.053320471 0.25072828 1.9620548
-0.067856029 0.25435689 1.990398
-0.081774265 0.25483784 1.9938537
-0.095271572 0.25405756 1.9873027
0.1803648 0.32402194 1.9845086
0.12580632 0.32568175 1.9975463
0.11216998 0.3263633 2.0023
0.098186046 0.3260833 2.0010462
0.084183373 0.32563859 1.9987093
0.042336017 0.32379484 1.9881629
0.18096201 0.3112492 1.9925781
0.16780485 0.31253138 2.0016448
0.13895415 0.31019762 1.9879705
0.098029464 0.31169769 1.9992753
0.070105106 0.31084087 1.9944974
0.042622585 0.31210297 2.0031698
0.17995961 0.29575616 1.982831
0.15278041 0.29645208 1.9890445
0.12447807 0.29479489 1.9790926
0.11203012 0.29819179 2.002614
0.097919315 0.29749754 1.9983901
0.084243104 0.29811239 2.002965
0.056190614 0.296554 1.9930471
0.042407829 0.29671678 1.9943722
0.18019651 0.2823585 1.9867743
0.16627844 0.28213614 1.985983
0.15305656 0.28316164 1.9939822
0.13939041 0.28348723 1.9969555
0.12427273 0.28060707 1.9771039
0.11102502 0.28175876 1.9858149
0.097759545 0.28318474 1.9964164
0.070256159 0.28379616 2.0015204
0.055877171 0.28117076 1.983145
0.042254899 0.281883 1.9884294
0.18016446 0.26852366 1.987667
0.16592075 0.26778269 1.9829221
0.15250295 0.26836121 1.9879607
0.12523694 0.26897642 1.993811
0.11100526 0.26795331 1.9867011
0.097069308 0.26745555 1.983451
0.08318311 0.26695347 1.980105
0.070105992 0.26936197 1.9984566
0.042247415 0.26807168 1.9893149
0.18119544 0.25619683 2.0003211
0.16482194 0.25235379 1.970861
0.1530003 0.2554152 1.9956802
0.13838078 0.25395009 1.9848002
0.12478115 0.25423992 1.9876779
0.11120333 0.25465158 1.9914538
0.097627558 0.25518501 1.9961292
0.083455943 0.25408012 1.9878274
0.069644198 0.25385115 1.9863664
0.05582865 0.25349236 1.98382
0.042469054 0.25564447 2.0010157
0.18617949 0.23130195 1.9088261
0.17280652 0.23111391 1.9080733
0.15468778 0.39796829 2.0029314
0.056726325 0.39694506 2.0011201
0.16805017 0.38260314 1.9966632
0.14052556 0.38347995 2.0026877
0.098125264 0.38139784 1.9933599
0.07068982 0.3831473 2.0033462
0.18219109 0.36912173 1.9999918
0.1671249 0.35280395 1.9889358
0.084448203 0.35448781 2.0019515
0.18127222 0.33952144 1.993055
0.12526654 0.33809537 1.9874042
0.1122373 0.3404671 2.0019958
0.084275275 0.33987796 1.9993969
0.056378286 0.33910099 1.9954287
0.042299192 0.33729142 1.9849216
0.22721189 0.18656966 1.6264861
0.21608675 0.18673888 1.6289831
0.20456988 0.18656957 1.6284466
0.19214278 0.18550168 1.6199344
0.25996497 0.19099471 1.7737514
0.23742546 0.32658178 1.9964839
0.22161309 0.32380065 1.9803946
0.19517334 0.32570508 1.9940399
0.26570591 0.31321815 1.9991547
0.23797354 0.31339461 2.0025914
0.33671731 0.30048561 2.0017314
0.32190883 0.2997227 1.9981197
0.23759213 0.29897362 2.000752
0.20955347 0.29868677 2.0008526
0.19397373 0.29613054 1.9845104
0.29301399 0.28480908 1.9955028
0.27906069 0.28476155 1.9964739
0.26433206 0.2838763 1.9914578
0.25078878 0.28423658 1.9951795
0.23546946 0.28250825 1.9840577
0.22205992 0.28299862 1.9885703
0.19547077 0.28452328 2.0012691
0.2655789 0.27128884 2.0021925
0.25098985 0.27057463 1.9980553
0.23693356 0.27038473 1.9977516
0.2079486 0.26880154 1.9879788
0.19457653 0.26939246 1.993297
0.32111415 0.25722542 1.9969708
0.30745268 0.25744119 2.0000956
0.29247764 0.25652528 1.9942917
0.27827755 0.2562317 1.993292
0.26475197 0.25656098 1.9971105
0.25143248 0.25713742 2.0028079
0.23619291 0.25570273 1.9926518
0.22339633 0.25689888 2.0030911
0.20882967 0.25608316 1.9976603
0.19425237 0.25513753 1.9911381
0.33500415 0.24328516 1.9964398
0.30619204 0.24251191 1.9929701
0.27372569 0.23840187 1.9615518
0.26003748 0.23835641 1.9623885
0.24316092 0.23522156 1.9375126
0.22907221 0.2345743 1.9332089
0.21636391 0.23534799 1.9406476
0.20223309 0.23457433 1.9351643
0.33492956 0.22931619 1.9970723
0.32066345 0.22906522 1.9963661
0.33533937 0.21566494 2.0005517
0.32121286 0.2155343 2.0008283
0.29781517 0.20888898 1.9400519
0.33509132 0.20158386 2.0000124
0.32113162 0.20155989 2.0012686
0.30088034 0.19740592 1.9611077
0.32088885 0.18749815 2.0006297
0.30154553 0.18417919 1.966346
-0.26997671 0.027979232 1.6232733
-0.27014768 0.016707873 1.6244124
-0.26885149 0.0053927917 1.6165943
-0.26950157 -0.0058562476 1.6205395
-0.26917219 -0.017097404 1.618488
-0.27046391 -0.028481746 1.6262254
-0.31754273 0.031588726 1.8332601
-0.30450881 -0.030780634 1.757374
-0.26934174 -0.043232191 1.770891
-0.28339344 -0.043503881 1.780862
-0.27191687 0.17589945 1.6290138
-0.26873484 0.16261101 1.6105381
-0.27057901 0.15241979 1.6224169
-0.27095866 0.14131069 1.6253843
-0.27068472 0.1298563 1.6243427
-0.27154338 0.11892081 1.6301107
-0.27142343 0.1075259 1.6298987
-0.27146173 0.096197084 1.6305938
-0.27052087 0.084559001 1.625299
-0.27055061 0.073262371 1.6258374
-0.26830092 0.061441272 1.6124943
-0.26880953 0.050324585 1.6158341
-0.27028912 0.0393066 1.6250169
-0.31922048 0.044560295 1.8428541
-0.11015106 0.027510064 1.6076338
-0.12107449 0.027471641 1.6048504
-0.1322901 0.027500404 1.6059797
-0.14352658 0.027528718 1.6070312
-0.1540242 0.027421424 1.6000421
-0.16514479 0.027431984 1.5999483
-0.17627108 0.027442109 1.5997781
-0.1876331 0.027485564 1.6015174
-0.19902688 0.027528567 1.603177
-0.21070948 0.027604865 1.606739
-0.22204313 0.027630087 1.6072451
-0.23268183 0.027570551 1.6027236
-0.2450579 0.027712917 1.6099967
-0.25754392 0.027854759 1.6171759
-0.11028998 0.016438015 1.609779
-0.12100381 0.01638481 1.6040027
-0.13205038 0.016381806 1.6031396
-0.14344305 0.016418882 1.6061852
-0.15507303 0.016475847 1.6111414
-0.16606525 0.016461959 1.6090505
-0.17736144 0.016478058 1.6098679
-0.18740851 0.016383057 1.5996805
-0.19854502 0.016388578 1.5993569
-0.2104585 0.016454265 1.6049061
-0.22150786 0.016449185 1.6034327
-0.23354304 0.016514307 1.6088125
-0.24581088 0.016589185 1.6150916
-0.25599384 0.016522968 1.6074502
-0.11029173 0.0053313547 1.6098533
-0.12115475 0.005320644 1.6060712
-0.13254033 0.0053327535 1.6091937
-0.14309284 0.0053120642 1.6022749
-0.15441111 0.0053207316 1.6042475
-0.16505089 0.005306425 1.599177
-0.17736422 0.0053443415 1.6099426
-0.18764196 0.0053200647 1.6017412
-0.19964643 0.0053447229 1.6083639
-0.21071938 0.0053431555 1.6069638
-0.22232471 0.005354567 1.6094515
-0.23468526 0.0053822077 1.6168054
-0.24462214 0.0053542801 1.6072558
-0.25599784 0.0053589069 1.6075251
-0.11035939 -0.0057791085 1.6108495
-0.12137824 -0.0057745944 1.6090614
-0.13229634 -0.0057664448 1.6062019
-0.14335713 -0.0057652961 1.6052617
-0.15460087 -0.0057711401 1.6062368
-0.16566104 -0.0057698078 1.6051444
-0.17617089 -0.0057506803 1.5990061
-0.18821819 -0.0057810331 1.6067065
-0.1994023 -0.005782967 1.6063772
-0.21071933 -0.0057883468 1.6069623
-0.22056229 -0.0057547279 1.5965701
-0.23326196 -0.0057952944 1.6069057
-0.244473 -0.0057968642 1.6062655
-0.25708845 -0.0058301445 1.6144378
-0.11015446 -0.016861476 1.6077791
-0.12107822 -0.016837923 1.6049954
-0.13213155 -0.016834833 1.6041317
-0.14379534 -0.016903982 1.6101649
-0.15450345 -0.016858922 1.6051643
-0.16514985 -0.016813613 1.6000934
-0.17627652 -0.016819822 1.5999231
-0.18786937 -0.01686715 1.6036491
-0.19964311 -0.016924534 1.6082846
-0.21110228 -0.016950598 1.6098596
-0.22218543 -0.01694537 1.6083816
-0.23340051 -0.016950218 1.607818
-0.24581064 -0.017037457 1.6150869
-0.25552619 -0.016938467 1.6044825
-0.11001549 -0.027919304 1.6056311
-0.12107427 -0.027914621 1.6048429
-0.13261513 -0.02801255 1.6099583
-0.14335015 -0.027938277 1.6050317
-0.15516275 -0.02806961 1.6119787
-0.1663648 -0.028080292 1.611877
-0.17681319 -0.027970415 1.6047405
-0.18855482 -0.028066009 1.6094553
-0.19951469 -0.02804107 1.6071389
-0.21083796 -0.028067142 1.6077231
-0.22217835 -0.028092759 1.6082281
-0.23325075 -0.028083665 1.6066747
-0.24446124 -0.02809127 1.6060343
-0.25723189 -0.028269675 1.615193
-0.11170261 -0.039596457 1.6303384
-0.12270749 -0.039517835 1.626547
-0.13553567 -0.039990373 1.6455996
-0.14889368 -0.040534049 1.6675402
-0.16170309 -0.04086104 1.6804178
-0.17327136 -0.040851612 1.6792752
-0.18797697 -0.041536618 1.7068741
-0.2006468 -0.041717432 1.7134961
-0.2298886 -0.042747341 1.7542182
-0.24263585 -0.042853858 1.7575611
-0.2575739 -0.043318644 1.7756552
-0.11025541 0.1829818 1.6025571
-0.12141293 0.18306361 1.602758
-0.13241598 0.18291831 1.6009016
-0.14322336 0.18254612 1.5969911
-0.15464619 0.18295546 1.599933
-0.16581151 0.18302572 1.5998288
-0.17676607 0.18286912 1.5976721
-0.18804383 0.18304566 1.5984025
-0.21026802 0.18305427 1.5966713
-0.22144343 0.1831103 1.5961838
-0.10994554 0.1713955 1.5988069
-0.12174121 0.17242034 1.6079358
-0.13196263 0.17123064 1.5961651
-0.14361142 0.17193389 1.6021609
-0.15383279 0.17094988 1.592234
-0.1652444 0.17133181 1.5951041
-0.17702724 0.1720265 1.600859
-0.18912661 0.17292856 1.6085035
-0.19902462 0.17182942 1.5973055
-0.21122079 0.17272574 1.6047853
-0.22163428 0.17214747 1.5983803
-0.23438494 0.17335303 1.608642
-0.2456498 0.17339987 1.6079884
-0.25722778 0.17365402 1.6092212
-0.11017456 0.16065738 1.6029173
-0.12184463 0.16141905 1.6100664
-0.13280581 0.16119266 1.6072139
-0.14320575 0.16037275 1.59834
-0.15386935 0.15994459 1.5933628
-0.16579124 0.1607942 1.6011851
-0.17804387 0.16183779 1.6108979
-0.18917137 0.16179572 1.6096452
-0.20016812 0.16165282 1.6073292
-0.21011332 0.16072062 1.5970446
-0.22155115 0.16096643 1.5985311
-0.23316126 0.16130796 1.6009218
-0.244368 0.16135199 1.6002773
-0.25697693 0.16227764 1.6084018
-0.1099963 0.14932027 1.6009951
-0.12172296 0.15012129 1.609144
-0.13226698 0.14945175 1.6013284
