ply
format ascii 1.0
comment PCL generated
element vertex 1417
property float x
property float y
property float z
element camera 0
property float view_px
property float view_py
property float view_pz
property float x_axisx
property float x_axisy
property float x_axisz
property float y_axisx
property float y_axisy
property float y_axisz
property float z_axisx
property float z_axisy
property float z_axisz
property float focal
property float scalex
property float scaley
property float centerx
property float centery
property int viewportx
property int viewporty
property float k1
property float k2
end_header
0.15257698 -0.057137329 1.8324313
0.13996194 -0.057147939 1.8334292
0.12706563 -0.057034384 1.8303523
0.11452683 -0.057073984 1.8321742
0.1017488 -0.056989387 1.8299184
0.08919961 -0.057027161 1.8315681
0.076756686 -0.057156514 1.8361284
0.063840523 -0.056914996 1.8286176
0.051502354 -0.057196695 1.8380024
0.1778661 -0.069781125 1.8307391
0.16526048 -0.069796279 1.8319098
0.15256469 -0.06977272 1.8319983
0.14010155 -0.069860913 1.8349892
0.12712401 -0.069684632 1.8309172
0.1145176 -0.069695361 1.8317417
0.10190567 -0.069704957 1.83248
0.089288823 -0.069713451 1.8331321
0.076791868 -0.06983377 1.8366938
0.064354062 -0.070065938 1.8431668
0.19049944 0.18304132 1.8247322
0.11497089 0.18354785 1.8339609
0.089305066 0.18290491 1.8283991
0.076598875 0.18272689 1.8269768
0.064123444 0.18313764 1.8314345
0.051340967 0.18265788 1.8268551
0.17870477 0.17121117 1.8351243
0.16630626 0.17152326 1.8392757
0.15311985 0.17100713 1.8344127
0.14030901 0.1708551 1.833428
0.12765582 0.17088391 1.8343421
0.11481127 0.17063467 1.8321886
0.10222185 0.1707498 1.8339229
0.089517631 0.17067866 1.8335824
0.076657355 0.17023748 1.8291755
0.064103253 0.17043632 1.8316458
0.051269274 0.16980593 1.8250722
0.19058092 0.15782684 1.8270576
0.17874165 0.15854274 1.836249
0.1661627 0.15866192 1.8384176
0.15290499 0.158099 1.832557
0.14026271 0.15812819 1.8335571
0.12747656 0.1579849 1.8324829
0.11483505 0.15800905 1.8333094
0.10202318 0.15777567 1.8310652
0.08953622 0.15804985 1.8347038
0.076797344 0.15789643 1.8332804
0.06384021 0.15714522 1.8247994
0.051474072 0.15783703 1.8331598
0.17896722 0.14602306 1.8392721
0.16566062 0.14550762 1.8334992
0.15301639 0.14553675 1.834586
0.14021413 0.1454073 1.8335986
0.12756954 0.14543186 1.8345122
0.1143628 0.14475031 1.8263842
0.10215271 0.14531766 1.8340895
0.089457065 0.14525707 1.8337476
0.076812088 0.14527236 1.8343148
0.064163446 0.14528534 1.8347957
0.051123355 0.14420061 1.8212385
0.19075306 0.13265379 1.830031
0.17880698 0.13318393 1.8382393
0.16631252 0.13335544 1.8414029
0.15263225 0.13252582 1.8305656
0.14001255 0.13255033 1.8315639
0.12738615 0.13257273 1.832476
0.11444469 0.13223603 1.8283244
0.10206071 0.13253985 1.8330461
0.089376442 0.13248451 1.8327028
0.076370545 0.13185562 1.8243002
0.064174749 0.13265319 1.8357437
0.051465303 0.13252005 1.8341442
0.17864384 0.12036562 1.8371179
0.16624999 0.12058534 1.8412753
0.152821 0.12002849 1.8334157
0.1399595 0.11985696 1.83143
0.12726928 0.11981265 1.8313462
0.11464842 0.11983103 1.8321716
0.10218703 0.12004131 1.8358999
0.089053445 0.11940977 1.8265868
0.076837949 0.12000396 1.8361248
0.064115919 0.11988544 1.8346112
0.051307067 0.11950646 1.8290204
0.17895685 0.10785747 1.8408771
0.16627383 0.10788085 1.8420547
0.15350069 0.10784478 1.842151
0.13997963 0.10722925 1.8322049
0.12721899 0.10713182 1.8311248
0.11460311 0.10714827 1.8319497
0.10159669 0.10675842 1.8257109
0.088969886 0.10671358 1.8253639
0.076807655 0.10730301 1.8359029
0.06409061 0.10719696 1.8343885
0.0515365 0.10737833 1.8377764
0.17888384 0.095099621 1.8405756
0.16549385 0.094712667 1.8337948
0.15278025 0.094680764 1.8338858
0.14007294 0.094647355 1.8338892
0.12750979 0.094714373 1.8357983
0.11498874 0.094830886 1.8386185
0.10177475 0.094334029 1.8293879
0.089077711 0.094243519 1.8280445
0.0768589 0.094712503 1.8375899
0.063822247 0.094159916 1.8270919
0.05148761 0.094625942 1.8364692
0.1908562 0.082066938 1.832961
0.17890379 0.082394965 1.841181
0.16631362 0.082456984 1.8433535
0.15296182 0.082120381 1.8364799
0.14023951 0.082091466 1.8364841
0.12731816 0.081928708 1.8334109
0.11481613 0.082029656 1.8362309
0.10200626 0.081908412 1.8339787
0.089473374 0.08200676 1.8366272
0.076329425 0.081485175 1.8252169
0.063760266 0.081492484 1.8256944
0.051271331 0.081631072 1.8290828
0.19107965 0.069483548 1.8354657
0.17844173 0.069499739 1.8367264
0.16570625 0.069477499 1.8369052
0.15289421 0.069416806 1.8360008
0.14025296 0.069429696 1.8370011
0.12774225 0.069516174 1.8399085
0.11451801 0.069190636 1.8317606
0.10174094 0.069088072 1.8295056
0.089385569 0.069283351 1.8351475
0.076378167 0.068954311 1.8267283
0.064043067 0.069222145 1.8341976
0.051248509 0.069002971 1.8285978
0.19150537 0.056930639 1.8398736
0.17893514 0.056974415 1.8421317
0.16554137 0.056742612 1.835345
0.15233067 0.056540336 1.8294582
0.1398869 0.056611903 1.8324479
0.1269287 0.056468822 1.8283737
0.11434164 0.056477506 1.8291966
0.10196922 0.056607492 1.833926
0.088910565 0.05633942 1.8255934
0.076674111 0.056589838 1.8341467
0.06415195 0.056686588 1.8376232
0.051391445 0.056568526 1.8340214
0.19090176 0.044083524 1.8342521
0.17827561 0.044093799 1.8355116
0.16483949 0.043889977 1.827723
0.1530807 0.044135988 1.838768
0.14049949 0.044167899 1.8407661
0.12693681 0.043866981 1.8287158
0.11447267 0.043921195 1.8315347
0.10186569 0.043927252 1.8322728
0.089157373 0.043885142 1.8309277
0.07651341 0.043866049 1.830494
0.06398315 0.043917477 1.8329717
0.051450282 0.043991935 1.8363631
0.19162934 0.031535592 1.8414719
0.19163834 -0.0066125654 1.8417268
0.19194314 -0.019359853 1.8446221
0.19233821 -0.044925679 1.8481621
0.19166912 0.17144664 1.8368334
0.19225781 0.14645788 1.843958
0.19160394 0.12053125 1.8388342
0.19152878 0.10777469 1.8386201
0.19175833 0.095179364 1.8412987
-0.075959869 0.30076519 1.8449136
-0.088148482 0.29866183 1.8315326
-0.10155654 0.30069959 1.8437023
0.039075918 0.28613257 1.8352026
0.026236132 0.28492203 1.8275206
0.013605633 0.28584576 1.8335856
0.00088342407 0.28370941 1.8197994
-0.011825507 0.28584638 1.8335979
-0.024540538 0.28583992 1.8334737
-0.037115023 0.28475958 1.8263464
-0.049993213 0.28596625 1.8339535
-0.062642746 0.28564075 1.8315934
-0.075423315 0.28592175 1.8330978
-0.08808624 0.28574005 1.8315529
-0.10121623 0.28692824 1.8388029
0.038797319 0.27145496 1.8232647
0.026188958 0.27175805 1.8254647
0.01352307 0.27147278 1.8236216
0.00088991784 0.2730816 1.834553
-0.011753745 0.27147335 1.8236334
-0.0244441 0.27205133 1.8274671
-0.03706817 0.27174884 1.825279
-0.050010581 0.27334023 1.835861
-0.062429931 0.27200705 1.8265781
-0.075328574 0.27285966 1.83204
-0.087928407 0.27254 1.8295064
-0.10168239 0.27542722 1.8486196
0.038872838 0.25932121 1.8280438
0.026141353 0.2586354 1.823315
0.013520288 0.25878111 1.8244406
0.00088878541 0.26003698 1.8334019
-0.011776627 0.2593388 1.8284136
-0.024544099 0.26044714 1.8362114
-0.037080482 0.25918365 1.82709
-0.049572885 0.25833398 1.8208544
-0.062517695 0.25970837 1.8303702
-0.075031042 0.25912911 1.8259429
-0.088004693 0.26007733 1.832312
-0.1015005 0.26213497 1.8465002
0.038718093 0.24567716 1.8218424
0.026276378 0.24727738 1.8339565
0.013546412 0.24662094 1.8291366
0.00088621007 0.24662319 1.8291858
-0.011729748 0.24569383 1.8222107
-0.024381202 0.24608582 1.825061
-0.036932781 0.24554624 1.8208873
-0.049855918 0.24712296 1.8324823
-0.062369846 0.24644311 1.8271461
-0.075135462 0.24681935 1.8296485
-0.087891147 0.24705909 1.8310726
-0.10040025 0.24663267 1.8274608
0.038792443 0.23351294 1.8264512
0.026242046 0.23427697 1.8326243
0.013528655 0.23365404 1.8277999
0.00088504842 0.23365617 1.8278493
-0.011739614 0.23327729 1.8248359
-0.024454223 0.23415229 1.8316567
-0.037083488 0.23389173 1.8294629
-0.049603548 0.23325023 1.8242081
-0.063025936 0.2362514 1.8476225
-0.075077407 0.23396805 1.829307
-0.087681904 0.23381843 1.8277603
-0.1009159 0.23517354 1.838016
0.03871996 0.22046424 1.8240308
0.026122749 0.22059226 1.8252447
0.013510678 0.22071674 1.8263726
0.00088530185 0.22107571 1.8294005
-0.011787288 0.22155012 1.8333347
-0.024369266 0.22071223 1.8262616
-0.037054215 0.22106062 1.8290303
-0.049724732 0.2211675 1.8297269
-0.062440045 0.22138983 1.8313291
-0.075098865 0.2213707 1.8308599
-0.087754123 0.22134806 1.8303044
-0.10056705 0.22167872 1.832637
0.038772244 0.20813255 1.8274788
0.026115729 0.20791666 1.8257132
0.013507053 0.20803408 1.8268418
0.000885065 0.20837261 1.8298721
-0.011796813 0.20904443 1.835797
-0.024375863 0.20814201 1.8277245
-0.037084199 0.20858274 1.831489
-0.049738187 0.20857133 1.8311927
-0.075159542 0.20887509 1.8333201
-0.087777838 0.20874153 1.8317716
-0.10113388 0.21017483 1.8440286
0.038740322 0.19534217 1.8268675
0.0260942 0.19513936 1.8251001
0.013517787 0.19556597 1.8292128
0.00088338397 0.19535689 1.827273
-0.011787158 0.19619896 1.8351914
-0.024382081 0.19556193 1.8291014
-0.036953982 0.19523808 1.8259095
-0.049563542 0.19522737 1.8256141
-0.062439285 0.19605681 1.833184
-0.075138316 0.19614524 1.8337084
-0.087847374 0.19623052 1.834146
-0.10061981 0.196418 1.8354893
0.077202916 0.28591794 1.8330246
0.064524256 0.28609583 1.8344957
0.051828977 0.28626925 1.8358806
0.1786927 0.2728017 1.8269596
0.16593908 0.27271402 1.8271502
0.15351906 0.27320549 1.8311967
0.14142714 0.27442241 1.8400923
0.12860446 0.27432215 1.8400266
0.11498816 0.27232042 1.8270372
0.10243381 0.27264917 1.8297541
0.089991599 0.27341163 1.8353502
0.077229723 0.27329403 1.8349326
0.064236507 0.27215004 1.8275063
0.051597979 0.27231571 1.8288903
0.18018469 0.26227316 1.8435626
0.16617137 0.26038182 1.8309401
0.15348779 0.26043335 1.8320304
0.14064656 0.26020259 1.8310595
0.12789428 0.26010683 1.830988
0.1146564 0.25889343 1.8229221
0.10213863 0.25920692 1.8256387
0.089733072 0.25993407 1.8312378
0.077172801 0.26037884 1.8347749
0.064602569 0.26095879 1.8392166
0.051283013 0.25805318 1.8188268
0.17919008 0.24808982 1.8344561
0.16640127 0.24801052 1.834648
0.15271598 0.24647126 1.823886
0.14054047 0.24731068 1.830815
0.12848228 0.24854374 1.8406299
0.11518592 0.24738945 1.8325597
0.10228068 0.24689321 1.8293437
0.089665309 0.24705528 1.8309879
0.076743126 0.24628609 1.8256143
0.064278193 0.24697036 1.8310479
0.051659152 0.24725327 1.8334247
0.1792437 0.23542464 1.8361053
0.16689521 0.23597737 1.8412372
0.15300792 0.2342657 1.8284909
0.14073318 0.23493676 1.8344376
0.12817854 0.23522739 1.8373338
0.11503551 0.23438333 1.8312339
0.10242123 0.23454088 1.8329659
0.089644216 0.23431765 1.8316396
0.076890141 0.23409066 1.8302256
0.064263068 0.23423709 1.8316981
0.051314726 0.2329967 1.8221767
0.17910333 0.22251081 1.8356917
0.16596533 0.22196442 1.8319255
0.15379001 0.22272164 1.8389512
0.14009574 0.22121716 1.8270866
0.12746166 0.22125424 1.8279992
0.11525342 0.22212021 1.8357627
0.10212104 0.22119905 1.8285744
0.089429297 0.22110674 1.8282365
0.076953426 0.22160566 1.8327717
0.064177938 0.2212684 1.8302764
0.051495615 0.22116554 1.8296787
0.17905575 0.20972563 1.8361772
0.1664543 0.20988277 1.8383451
0.15342098 0.20947626 1.8354763
0.14066057 0.20940261 1.8354887
0.12715349 0.20809235 1.8245091
0.11509937 0.20913321 1.8342596
0.10181912 0.20792808 1.8240877
0.089453459 0.20851393 1.8297018
0.076891594 0.2087601 1.8322544
0.064160779 0.20855427 1.8307499
0.051481839 0.20845726 1.8301511
0.17910106 0.19704941 1.8375646
0.16578534 0.19635482 1.8318101
0.15321355 0.19649927 1.8338886
0.14024435 0.19611411 1.8309244
0.12821369 0.19709519 1.840767
0.11488172 0.19607161 1.831673
0.10189997 0.19546616 1.8264562
0.089428119 0.19580589 1.8300881
0.076745875 0.19572102 1.8296615
0.064211667 0.19605464 1.8331236
0.051356398 0.19533107 1.8265603
0.17904791 0.18426542 1.8378752
0.16626932 0.1842066 1.8380623
0.15382494 0.18453899 1.8421286
0.14050379 0.1837846 1.8351965
0.12783301 0.18381555 1.8361118
0.10247375 0.18386872 1.8376828
0.20585036 0.27515039 1.8410649
0.19329236 0.27550903 1.8443937
0.20624524 0.26284403 1.8458514
0.19294681 0.26221311 1.8422898
0.20576443 0.24942699 1.8426752
0.19259806 0.24895892 1.8400917
0.19255324 0.23612374 1.8407599
0.19178864 0.22245961 1.8344263
0.19173767 0.20967734 1.8349123
0.19168365 0.19689874 1.8353106
-0.11295701 0.031369954 1.835892
-0.11302149 0.018731482 1.8370607
-0.1128406 0.0060653775 1.8341511
-0.11308415 -0.0065849284 1.8381419
-0.11235154 -0.019123629 1.8260766
-0.11277413 -0.031824235 1.8328891
-0.11234243 -0.044282753 1.8256441
-0.11270048 -0.057044324 1.831285
-0.11415959 0.1595422 1.8513197
-0.11316723 0.13280994 1.8363978
-0.11393196 0.10819074 1.8499948
-0.113277 0.094883785 1.8397243
-0.11383758 0.082605585 1.849303
-0.11311796 0.069416203 1.8378538
-0.11337056 0.056875747 1.8422749
-0.1128907 0.043993272 1.8346367
0.038415059 0.031032406 1.817935
0.025790093 0.030898331 1.8101563
0.013302239 0.030831425 1.8062906
0.00088026654 0.031187069 1.827336
-0.011720451 0.031254537 1.8312984
-0.024335677 0.031270739 1.8321751
-0.03694338 0.031269506 1.831966
-0.049549296 0.031267777 1.8316711
-0.06225371 0.031316299 1.8342878
-0.07483422 0.031296637 1.8328209
-0.087444745 0.031293392 1.8322672
-0.10037554 0.031391121 1.8376179
0.038814276 0.018711811 1.837099
0.025847413 0.018480323 1.8143239
0.013156643 0.018198028 1.7864602
0.0008812499 0.018632445 1.8295056
-0.011714479 0.018642414 1.8304685
-0.02432329 0.018652081 1.8313457
-0.036964551 0.018671548 1.8331362
-0.049443625 0.018620025 1.827843
-0.062188435 0.018669179 1.8324597
-0.074877068 0.018687734 1.8339906
-0.087494813 0.018685797 1.8334366
-0.10021649 0.018703744 1.8347933
0.038270265 0.0059836642 1.8111893
0.025876073 0.0060002888 1.8164072
0.013186056 0.0059152828 1.7905422
0.00088269683 0.0060529024 1.8325897
-0.011733702 0.006056136 1.8335527
-0.024297334 0.0060428954 1.8294301
-0.036965135 0.0060557583 1.8332206
-0.04957848 0.0060554231 1.8329252
-0.062223043 0.0060582645 1.8335432
-0.074878246 0.0060610082 1.8340749
-0.087401643 0.006053831 1.8315231
-0.10016399 0.0060629272 1.8338794
0.038793933 -0.0065709231 1.836182
0.013047328 -0.0063407272 1.7715411
0.00087027758 -0.006464975 1.8065884
-0.011708316 -0.0065465402 1.8295512
-0.024297327 -0.0065463893 1.8294284
-0.036965128 -0.0065603233 1.8332186
-0.049658898 -0.0065706037 1.8359224
-0.062021218 -0.0065417527 1.8275449
-0.074837767 -0.0065624639 1.833074
-0.087543428 -0.0065688766 1.834518
-0.10021804 -0.0065716361 1.8348762
0.037431754 -0.018532956 1.7711117
0.025875637 -0.019000441 1.8163188
0.013017908 -0.01849271 1.7674567
0.0008549788 -0.018565482 1.7745036
-0.011695431 -0.019115055 1.8274637
-0.024323262 -0.019156097 1.8313403
-0.036964521 -0.019176088 1.833131
-0.049604457 -0.019185396 1.8338352
-0.061919305 -0.019090697 1.8244594
-0.07455337 -0.019109759 1.8259922
-0.087352909 -0.019159617 1.8304347
-0.10005416 -0.019178059 1.831793
0.037430529 -0.030724712 1.7709436
0.025973661 -0.031620085 1.8231447
0.01348474 -0.031758446 1.8312777
0.00085256278 -0.030692661 1.7693359
-0.011676012 -0.031638157 1.824291
-0.024190784 -0.031585839 1.8211691
-0.036843371 -0.031687766 1.8269594
-0.049656469 -0.031840738 1.8356605
-0.061950922 -0.031666551 1.8252856
-0.074591391 -0.031698152 1.8268181
-0.087113738 -0.031677678 1.8252674
-0.099780485 -0.031708259 1.826627
0.038455013 -0.044091724 1.8196677
0.026297223 -0.044717971 1.8458772
0.00087449088 -0.043974988 1.8150716
-0.011719858 -0.044358946 1.8310298
-0.024308115 -0.044333912 1.8299074
-0.036741618 -0.044140052 1.8217025
-0.049466364 -0.044305701 1.8284045
-0.061914261 -0.044206489 1.8240275
-0.074506864 -0.044226624 1.824561
-0.087109499 -0.044246051 1.8250084
-0.099829711 -0.044312764 1.827366
0.038494408 -0.056675784 1.8213224
0.026210785 -0.057233203 1.839532
0.013548908 -0.057234652 1.8396679
0.0008758668 -0.056556739 1.8177274
-0.011712754 -0.056926403 1.829685
-0.024280202 -0.056863416 1.8275629
-0.037019074 -0.057107866 1.8353491
-0.049516775 -0.056950543 1.8300577
-0.062246539 -0.057069797 1.8336725
-0.074866049 -0.057064801 1.8332047
-0.087387428 -0.05699724 1.8306541
-0.099715099 -0.056836307 1.8250245
0.038812339 0.18306285 1.8311422
0.026227359 0.18346493 1.835344
0.013557471 0.18346955 1.8354795
0.0008816882 0.18238614 1.8245822
-0.011713958 0.18238491 1.8245455
-0.024295894 0.18228209 1.8234276
-0.037102543 0.18335998 1.834163
-0.049709253 0.18315266 1.8318772
-0.062454231 0.18343554 1.8344786
-0.10021191 0.18298468 1.8288372
0.038862858 0.17064223 1.8343391
0.026205022 0.17064926 1.834561
0.013545927 0.17065355 1.8346969
0.00088045496 0.16955291 1.8227967
-0.011722917 0.16991912 1.8267425
-0.024419686 0.17055817 1.8335896
-0.036911219 0.16981676 1.8254151
-0.049666833 0.17035849 1.8310931
-0.06230028 0.17034641 1.8307109
-0.074971125 0.17042343 1.8312379
-0.087557599 0.17031407 1.8296885
-0.10093635 0.17157909 1.8429686
0.038619895 0.15699561 1.8235064
0.026083512 0.15725723 1.8267156
0.013468532 0.1570911 1.8248581
0.00088540866 0.15785801 1.8338746
-0.011763385 0.15785691 1.8338374
-0.024385307 0.15768319 1.8317212
-0.036918897 0.15725182 1.8265309
-0.04986462 0.15834871 1.8391843
-0.062346824 0.15782724 1.8328259
-0.075107917 0.15806861 1.8353442
-0.087481372 0.15754221 1.8288171
-0.1006332 0.15837359 1.8381264
0.03864824 0.14452186 1.8255316
0.026060311 0.14452782 1.8257524
0.013463829 0.14445321 1.82489
0.0008793762 0.14421979 1.8219485
-0.01175297 0.14507955 1.8328774
-0.024389999 0.14507622 1.8327541
-0.037145678 0.14554004 1.8385252
-0.049793851 0.14545381 1.837232
-0.0623588 0.14520873 1.8338596
-0.074920289 0.14503962 1.831399
-0.087450936 0.14486822 1.828853
-0.10022029 0.14508563 1.8311998
0.038655058 0.1319561 1.8264747
0.02606491 0.13196157 1.8266954
0.013524564 0.13246505 1.8338124
0.00088478072 0.13246626 1.8338614
-0.01170432 0.13189374 1.8258449
-0.024354829 0.13224795 1.8307087
-0.037012406 0.13238567 1.832494
-0.049668681 0.13244982 1.8331956
-0.062235374 0.13229753 1.83082
-0.074812233 0.13221455 1.8293555
-0.087371871 0.13212948 1.8278058
-0.10045406 0.13275647 1.8361304
0.038786851 0.11977185 1.833318
0.026097318 0.11951826 1.8295486
0.013482958 0.11945664 1.8286856
0.00088158168 0.1193931 1.8277367
-0.011725225 0.11952155 1.8296956
-0.024385057 0.11977735 1.8335639
-0.037018344 0.11977267 1.8333542
-0.049596261 0.1196368 1.8310636
-0.062312573 0.11982217 1.8336743
-0.074985914 0.11987633 1.834203
-0.0874331 0.11960549 1.829661
-0.10041609 0.12004348 1.8359966
0.038792461 0.10715319 1.8340925
0.02604463 0.106695 1.8263282
0.013375453 0.10600373 1.8144835
0.00088218652 0.10687216 1.8295069
-0.011758632 0.10721841 1.8354598
-0.024388583 0.10715811 1.8343382
-0.037063662 0.10726957 1.836125
-0.049603429 0.10703234 1.8318368
-0.06232157 0.10719817 1.8344487
-0.074835032 0.10701537 1.8309878
-0.087492965 0.10706212 1.8314314
-0.10053869 0.10751176 1.8387665
0.038797449 0.094529361 1.8347806
0.026047977 0.094125144 1.8270134
0.013464746 0.094127521 1.8271481
0.00088707439 0.094791628 1.8401803
-0.011804545 0.094944015 1.8431389
-0.024378557 0.09448269 1.8340276
-0.036968507 0.094376951 1.8318211
-0.049636606 0.094473757 1.8335226
-0.062161487 0.094314002 1.8301466
-0.074965939 0.094560772 1.8346689
-0.087598689 0.09455099 1.8341142
-0.10033534 0.094641678 1.8354678
0.038780876 0.081856757 1.8343836
0.02605091 0.081550747 1.8276126
0.013466263 0.081552811 1.8277475
0.00088430929 0.081862979 1.8347896
-0.011723404 0.08168561 1.8307565
-0.024341805 0.081727915 1.8316324
-0.03711256 0.0820783 1.8394138
-0.049695797 0.08194118 1.8361214
-0.062168479 0.081714369 1.8307471
-0.075095676 0.082060739 1.8382654
-0.087419502 0.081742935 1.8307242
-0.10002221 0.081733182 1.830085
0.038658965 0.069006935 1.8289046
0.026053419 0.068972409 1.8281262
0.013394568 0.068600319 1.8182683
0.00088152935 0.06901218 1.8293093
-0.01173088 0.069123849 1.8322703
-0.024383653 0.069234416 1.8351448
-0.037016213 0.069231704 1.8349354
-0.049593359 0.069153108 1.8326417
-0.062376227 0.069335051 1.8372539
-0.074779376 0.069104739 1.8307945
-0.08738067 0.069097579 1.8302411
-0.10041032 0.069388248 1.8375846
0.038683008 0.056449529 1.8303317
0.025773069 0.055779465 1.8085651
0.013381044 0.056025397 1.8166946
0.00088255544 0.056484386 1.8317362
-0.011725478 0.056483999 1.8316995
-0.024319775 0.056452136 1.830577
-0.03693923 0.056480482 1.8313673
-0.049597342 0.05653847 1.8330705
-0.062347598 0.05665667 1.8366849
-0.075068496 0.056712817 1.8382138
-0.087529466 0.056584731 1.8336649
-0.10003985 0.056516867 1.8310283
0.038413212 0.043543365 1.8176807
0.026113683 0.043901324 1.8328942
0.013294296 0.0432376 1.8050379
0.00088070164 0.043784115 1.8280797
-0.011650086 0.043593865 1.8200454
-0.024360843 0.043925267 1.8339182
-0.037001573 0.043947283 1.8347081
-0.050002702 0.044277228 1.8484037
-0.062183458 0.043894235 1.8320328
-0.07491152 0.043961599 1.8345619
-0.08838585 0.044384267 1.8519825
-0.10020849 0.043975513 1.8343657
0.19132142 0.031484917 1.8384881
0.17837998 0.031441573 1.8367645
0.16555986 0.031414609 1.8359467
0.15308802 0.031454749 1.8390259
0.14005345 0.031376064 1.8350421
0.12714885 0.031313762 1.8319649
0.11429261 0.031250942 1.8287975
0.10176051 0.031272165 1.8305329
0.089016981 0.031225236 1.8281879
0.07647568 0.031245461 1.8297515
0.063847877 0.031231353 1.8292311
0.051313922 0.031267498 1.8316227
0.19101952 0.018759754 1.8356756
0.17876904 0.018804459 1.840917
0.16556509 0.018748038 1.8361176
0.15284608 0.018741731 1.8362075
0.13990699 0.01870486 1.8332188
0.12729022 0.018708035 1.8341303
0.11454365 0.018690733 1.8329598
0.10187383 0.018683221 1.8327
0.088826932 0.018594645 1.8243628
0.076105468 0.018556233 1.82093
0.063988268 0.018679064 1.8333987
0.050954577 0.018528977 1.8187988
0.19081722 0.006077827 1.8337709
0.17819671 0.006079244 1.8350295
0.16494425 0.0060576694 1.8292302
0.15276623 0.0060752495 1.8352957
0.14006013 0.0060731061 1.8352977
0.12722358 0.00606432 1.8332173
0.11454546 0.006061981 1.8330443
0.10171032 0.0060497234 1.829789
0.089069456 0.0060471874 1.8294412
0.076313704 0.0060347309 1.8260094
0.063539632 0.0060156253 1.820491
0.051260836 0.0060455431 1.8298782
0.17838837 -0.0065928516 1.8370188
0.16547856 -0.0065836543 1.8352044
0.1527662 -0.0065814392 1.835294
0.13990915 -0.0065720277 1.8333018
0.12729219 -0.0065731443 1.8342134
0.11454541 -0.0065670647 1.8330426
0.10182036 -0.0065608788 1.8317841
0.089165874 -0.0065581324 1.831437
0.077183239 -0.0066120364 1.8469898
0.063816316 -0.0065452275 1.8284844
0.051233049 -0.0065457099 1.8288769
0.17819373 -0.019250458 1.8349395
0.16556494 -0.019254649 1.8361125
0.1525169 -0.019206731 1.8322161
0.13968047 -0.019179218 1.8302226
0.12708414 -0.019182475 1.8311324
0.11435799 -0.0191647 1.8299606
0.10165357 -0.01914661 1.8287009
0.089116186 -0.019159315 1.8303506
0.076436639 -0.019140607 1.8289174
0.063849859 -0.019142332 1.8293961
0.050982293 -0.019040037 1.8197932
0.17809214 -0.031897068 1.83377
0.16475804 -0.031766627 1.8269749
0.15226518 -0.031790208 1.8290528
0.13990231 -0.031847648 1.8330398
0.12708001 -0.031801514 1.8309585
0.1150346 -0.031961061 1.8407642
0.10192544 -0.031827986 1.8335191
0.089161508 -0.031780306 1.8311754
0.076392747 -0.031714913 1.827745
0.063536495 -0.031580232 1.8202292
0.051202767 -0.031702913 1.8276165
0.17856275 -0.044672381 1.8384845
0.16519536 -0.044490226 1.8316941
0.15283358 -0.04457115 1.8357669
0.13966917 -0.04441148 1.8297887
0.12748575 -0.044563014 1.8366827
0.11490531 -0.044593867 1.8385072
0.10203055 -0.044504002 1.8352553
0.08881963 -0.044221345 1.8239257
0.076347634 -0.044274047 1.8264868
0.063844658 -0.044326048 1.8289632
0.051533461 -0.044569455 1.839349
0.17970137 -0.057729192 1.8500758
0.16545185 -0.057218205 1.8343339
0.15249473 -0.057106528 1.8314352
0.1398865 -0.057117131 1.8324326
0.12713428 -0.057065196 1.8313495
0.11458867 -0.0571048 1.8331718
0.10196891 -0.057112675 1.8339103
0.088524587 -0.056595605 1.8175911
0.076756686 -0.057156514 1.8361284
0.063736774 -0.056822501 1.8256208
0.051335771 -0.057011694 1.8320076
0.17824943 -0.069931515 1.8347179
0.16534951 -0.069833882 1.8329052
0.15338714 -0.070148848 1.8419573
0.13987522 -0.069748051 1.8319998
0.12739857 -0.069835141 1.8349049
0.11464127 -0.069770619 1.8337364
0.10201572 -0.069780231 1.8344754
0.089385249 -0.069788739 1.8351283
0.077371433 -0.070360817 1.8506719
0.06463071 -0.070367135 1.8511564
0.10208913 0.18317859 1.8307276
0.089353204 0.18300352 1.829393
0.076557539 0.18262827 1.8259826
0.064261571 0.18353212 1.8354125
0.051340967 0.18265788 1.8268551
0.19136164 0.17117158 1.8338618
0.17803475 0.17056924 1.828186
0.16586159 0.17106465 1.8343167
0.15344843 0.1713741 1.8383822
0.14053506 0.17113039 1.8364068
0.12731303 0.17042504 1.8293751
0.11512008 0.17109361 1.837158
0.10249664 0.1712088 1.8388941
0.089469478 0.17058684 1.8325877
0.076864086 0.17069659 1.83415
0.064034179 0.17025267 1.8296554
0.051491097 0.17054062 1.8330352
0.17835869 0.15820307 1.8322819
0.1661627 0.15866192 1.8384176
0.15339798 0.15860872 1.8385148
0.14071493 0.158638 1.8395183
0.12713368 0.15755998 1.8275129
0.11520569 0.15851903 1.8392762
0.10213312 0.15794569 1.8330549
0.089584388 0.15813488 1.8356991
0.076673277 0.15764134 1.8302939
0.063874759 0.15723024 1.8257952
0.051474072 0.15783703 1.8331598
0.17915873 0.14617932 1.8412569
0.16592751 0.14574206 1.8364781
0.15276986 0.14530227 1.8316054
0.13991259 0.14509459 1.8296224
0.1272952 0.1451191 1.8305339
0.11442459 0.14482851 1.8273792
0.10220769 0.14539587 1.8350849
0.089312546 0.14502241 1.8307602
0.07677073 0.14519413 1.8333188
0.064094342 0.14512886 1.832803
0.051234312 0.14451358 1.8252248
0.19147095 0.13315302 1.8369763
0.17880698 0.13318393 1.8382393
0.16604556 0.13314138 1.8384225
0.15287884 0.13273992 1.8335478
0.14016333 0.13269308 1.8335532
0.12752335 0.13271551 1.8344662
0.11438289 0.13216463 1.8273289
0.10178576 0.13218279 1.8280665
0.089280076 0.13234167 1.8307102
0.076577395 0.13221276 1.8292831
0.064140193 0.13258176 1.8347468
0.05132658 0.13216285 1.829159
0.17826068 0.12010746 1.8331447
0.165538 0.12006892 1.8333238
0.15306762 0.12022218 1.8363993
0.14056277 0.12037358 1.8393904
0.12788677 0.12039395 1.8403062
0.11458661 0.11976642 1.8311756
0.10207703 0.1199121 1.8339071
0.089246199 0.11966823 1.8305738
0.076713815 0.11981009 1.8331336
0.063977659 0.11962693 1.830622
0.051307067 0.11950646 1.8290204
0.19081067 0.10737061 1.8316687
0.17886105 0.10779974 1.8398833
0.16591778 0.10764984 1.8380773
0.15292516 0.10744043 1.8351865
0.13967796 0.10699815 1.8282231
0.12673867 0.10672734 1.8241531
0.11466492 0.10720607 1.8329462
0.10170671 0.10687402 1.8277045
0.08916267 0.10694481 1.8293526
0.076642118 0.10707175 1.8319131
0.064125173 0.10725479 1.8353862
0.051425491 0.10714703 1.8337846
0.17897965 0.09515056 1.8415697
0.16549385 0.094712667 1.8337948
0.15286249 0.094731726 1.8348811
0.13999751 0.094596386 1.8328934
0.12737253 0.09461242 1.8338056
0.11474146 0.094626948 1.8346314
0.1019398 0.094487004 1.8323795
0.089463331 0.094651498 1.8360249
0.076693349 0.094508491 1.8335985
0.064098835 0.094567977 1.8350768
0.051404338 0.094472907 1.8334743
0.1908562 0.082066938 1.832961
0.17909543 0.082483232 1.8431699
0.16649169 0.082545273 1.8453436
0.1527151 0.081987932 1.833493
0.14016406 0.082047306 1.8354878
0.1275927 0.082105376 1.8373976
0.1147543 0.081985481 1.8352338
0.10217131 0.082040951 1.8369712
0.089473374 0.08200676 1.8366272
0.07628803 0.081440985 1.8242186
0.063691109 0.08140409 1.8236977
0.051299091 0.081675269 1.8300815
0.19128488 0.069558181 1.8374537
0.17815423 0.069387764 1.8337423
0.16552816 0.069402829 1.8349146
0.15248299 0.069230102 1.8310212
0.14010207 0.069354996 1.8350081
0.12726174 0.069254696 1.8329298
0.11519819 0.069601595 1.842732
0.10196105 0.06923753 1.8334967
0.089337356 0.069245979 1.8341494
0.07675074 0.069290675 1.8357143
0.064077653 0.069259524 1.8351963
0.051192988 0.068928212 1.8266
0.19099222 0.056778092 1.8349024
0.17816842 0.056730285 1.8341722
0.16598661 0.05689523 1.8403229
0.15257742 0.056631926 1.8324467
0.14011326 0.056703508 1.8354379
0.12727195 0.056621522 1.8333596
0.1148982 0.05675241 1.8381752
0.10180413 0.056515843 1.8309319
0.089344509 0.056614395 1.8345788
0.076674111 0.056589838 1.8341467
0.06397903 0.056533795 1.8326286
0.051446974 0.05662965 1.8360196
0.19090176 0.044083524 1.8342521
0.17817977 0.044070091 1.8345164
0.16555193 0.044079669 1.8356889
0.1536565 0.044302002 1.8457423
0.14095221 0.044310223 1.8467472
0.12707411 0.04391443 1.8307105
0.11453451 0.043944921 1.8325325
0.10225092 0.044093374 1.8392601
0.089350246 0.043980081 1.834922
0.076554812 0.043889787 1.8314929
0.063948564 0.043893736 1.8319725
0.051283687 0.043849491 1.8303671
0.19153568 -0.0066090235 1.8407321
0.192559 -0.01942197 1.8505901
0.19203958 -0.032112751 1.8454412
0.19254348 -0.044973623 1.8501509
0.19160609 0.15867582 1.8369687
0.19184765 0.14614543 1.8399913
0.19160394 0.12053125 1.8388342
0.19196352 0.095281214 1.8432856
-0.075677939 0.29964888 1.8380089
-0.088007294 0.29818347 1.8285744
-0.10128731 0.29990241 1.8387736
0.039117645 0.28643811 1.8371787
0.026137659 0.28385264 1.8206035
0.013518371 0.28401244 1.8217269
0.00088532694 0.28432053 1.8237525
-0.011781263 0.28477693 1.8266802
-0.024527421 0.28568715 1.8324856
-0.037234493 0.28567618 1.8322748
-0.049993213 0.28596625 1.8339535
-0.062609248 0.28548801 1.8306057
-0.07538303 0.28576902 1.8321104
-0.087850839 0.28497645 1.8266171
-0.10132397 0.28723365 1.8407766
0.038964279 0.27262315 1.8311772
0.026160814 0.27146602 1.8234863
0.013515796 0.27132675 1.8226323
0.00088896602 0.27278954 1.8325745
-0.011760068 0.27161938 1.8246228
-0.024404736 0.27161324 1.8244995
-0.037028331 0.27145678 1.8233008
-0.049957149 0.27304819 1.8338832
-0.062597483 0.27273706 1.8315217
-0.075127058 0.27212968 1.8270977
-0.087928407 0.27254 1.8295064
-0.10135908 0.27455145 1.8426926
0.038747575 0.25848559 1.8221036
0.026141353 0.2586354 1.823315
0.013542118 0.25919896 1.8274113
0.00088735722 0.25961912 1.8304312
-0.011789277 0.25961736 1.8303941
-0.024544099 0.26044714 1.8362114
-0.037060555 0.25904438 1.8261
-0.049706504 0.25903031 1.8258039
-0.062450651 0.25942987 1.8283908
-0.074910089 0.25871137 1.8229746
-0.087627798 0.2589635 1.8243989
-0.1015005 0.26213497 1.8465002
0.038718093 0.24567716 1.8218424
0.026191888 0.24648227 1.82801
0.013546412 0.24662094 1.8291366
0.00088621007 0.24662319 1.8291858
-0.011755055 0.24622391 1.8261753
-0.024407459 0.24635087 1.8270432
-0.037052371 0.24634132 1.8268332
-0.049722258 0.24646042 1.8275282
-0.062503971 0.2469731 1.8311085
-0.074893482 0.24602443 1.8237064
-0.087467007 0.24586685 1.822162
-0.10013065 0.24597038 1.8225121
0.038792443 0.23351294 1.8264512
0.026129358 0.23327094 1.8246887
0.01349953 0.23315102 1.8238318
0.0008845721 0.23353042 1.8268572
-0.011739614 0.23327729 1.8248359
-0.024441089 0.23402654 1.8306646
-0.037123363 0.23414321 1.8314466
-0.049710512 0.2337532 1.8281749
-0.062556349 0.23449115 1.8337415
-0.075117752 0.23409377 1.8302982
-0.087634765 0.23369272 1.8267694
-0.10118559 0.23580199 1.8429689
0.038636375 0.21998833 1.82006
0.02608048 0.22023532 1.8222662
0.013503395 0.22059776 1.8253797
0.00088387245 0.22071876 1.8264219
-0.011780958 0.22143114 1.8323418
-0.024408678 0.22106919 1.8292401
-0.03707416 0.22117959 1.8300229
-0.049697984 0.22104853 1.8287344
-0.062305838 0.22091398 1.8273598
-0.074977808 0.22101384 1.8278836
-0.087565504 0.2208723 1.8263373
-0.10024334 0.22096516 1.8266884
0.038772244 0.20813255 1.8274788
0.026158011 0.20825328 1.8286939
0.013514339 0.2081463 1.8278354
0.00088840129 0.20915808 1.8368279
-0.011809478 0.20926884 1.8377842
-0.024375863 0.20814201 1.8277245
-0.037144043 0.20891935 1.8344694
-0.049711432 0.20845912 1.8301994
-0.062926784 0.21035162 1.8467002
-0.07519991 0.20898727 1.834313
-0.087683506 0.20851719 1.8297864
-0.10124182 0.21039914 1.8460129
0.038844854 0.19586927 1.8318385
0.02603781 0.19471766 1.8211228
0.013474064 0.19493341 1.8232464
0.00088243053 0.19514602 1.8252841
-0.011774491 0.1959881 1.8332026
-0.024513522 0.19661617 1.8390448
-0.037053749 0.19576518 1.8308806
-0.049670588 0.19564903 1.8295903
-0.062405713 0.19595142 1.8321902
-0.075017191 0.19582903 1.8307276
-0.087658659 0.19580896 1.8301728
-0.10088971 0.19694488 1.8404541
-0.075317837 0.18391271 1.8389809
-0.08810433 0.18409102 1.8404117
0.090440705 0.28756824 1.8433131
0.077037953 0.28530702 1.829075
0.06393861 0.28349912 1.8177054
0.051773664 0.28596374 1.8339049
0.17850168 0.27251008 1.8249902
0.16585034 0.27256817 1.826165
0.15351906 0.27320549 1.8311967
0.14082566 0.27325529 1.8322008
0.1280572 0.27315482 1.8321311
0.11523465 0.27290416 1.8309867
0.10292733 0.2739628 1.838644
0.089895502 0.27311966 1.8333739
0.077147208 0.27300206 1.8329557
0.064167581 0.27185804 1.825529
0.051487312 0.27173164 1.8249347
0.17913377 0.26074347 1.8327203
0.16643767 0.26079911 1.833899
0.15356979 0.26057249 1.8330173
0.14072178 0.26034173 1.8320469
0.12809958 0.26052433 1.8339517
0.11477968 0.25917181 1.8248988
0.10268717 0.26059902 1.835526
0.089444697 0.25909871 1.8253033
0.077337876 0.26093578 1.8387325
0.064257838 0.25956625 1.82932
0.051338363 0.25833172 1.8208065
0.17919008 0.24808982 1.8344561
0.16649006 0.24814285 1.8356352
0.15337212 0.24753021 1.8317884
0.14076617 0.24770786 1.8337799
0.12793468 0.24748442 1.8327193
0.11500093 0.24699214 1.8295919
0.10211606 0.24649584 1.8263747
0.089521073 0.24665786 1.8280178
0.076701842 0.24615362 1.8246241
0.064036801 0.24604289 1.8241138
0.051825259 0.24804829 1.8393694
0.1790525 0.23517351 1.8341304
0.16689521 0.23597737 1.8412372
0.15341814 0.23489377 1.8334342
0.14073318 0.23493676 1.8344376
0.12776771 0.23447345 1.8313955
0.11485047 0.2340063 1.8282634
0.10236634 0.23441519 1.8319753
0.090028957 0.23532331 1.8395668
0.076807551 0.23383921 1.8282431
0.064125091 0.23373416 1.8277322
0.05137011 0.23324819 1.82416
0.17929459 0.22274841 1.8376683
0.16632071 0.22243971 1.8358812
0.13964406 0.22050394 1.8211462
0.1278041 0.2218487 1.832952
0.11494493 0.22152567 1.8308078
0.10228576 0.22155581 1.8315486
0.089573614 0.22146356 1.8312117
0.076829508 0.22124881 1.8297955
0.063625872 0.21936502 1.8143996
0.051412512 0.22080863 1.826701
0.179534 0.2102858 1.8411226
0.16618769 0.2095466 1.8353759
0.1539135 0.21014874 1.841418
0.14073588 0.20951471 1.8364795
0.12770157 0.20898931 1.8324398
0.1152228 0.20935749 1.8362432
0.10220355 0.20871313 1.831033
0.089549698 0.20873827 1.8316869
0.076437101 0.20752616 1.8213333
0.064091757 0.2083299 1.8287637
0.051537257 0.20868166 1.8321377
0.19147876 0.19668826 1.8333322
0.17910106 0.19704941 1.8375646
0.1662298 0.19688125 1.8367624
0.1537883 0.19723642 1.840826
0.14047031 0.19643009 1.8338991
0.12821369 0.19709519 1.840767
0.11475825 0.19586089 1.829688
0.10206477 0.19578227 1.829435
0.089524381 0.19601667 1.8320748
0.076745875 0.19572102 1.8296615
0.064246185 0.19616005 1.8341174
0.051245537 0.19490941 1.822584
0.17981347 0.1850533 1.8457994
0.16671388 0.18469913 1.8430181
0.14050379 0.1837846 1.8351965
0.12790155 0.18391411 1.8371046
0.11521788 0.18394215 1.8379338
0.20639551 0.27587906 1.8459814
0.19216739 0.27390555 1.8335695
0.20646337 0.26312199 1.84782
0.19356063 0.26304731 1.8481997
0.20641904 0.25022051 1.8485863
0.19229104 0.24856207 1.8371339
0.2063715 0.23732086 1.8492637
0.19306508 0.23675139 1.8456939
0.20599328 0.22406743 1.8468915
0.19189104 0.22257838 1.8354139
0.20604841 0.21130547 1.8483764
0.19204494 0.21001336 1.8378776
0.20620964 0.19863884 1.8507628
0.1918316 0.18432133 1.8376004
-0.11295701 0.031369954 1.835892
-0.11302149 0.018731482 1.8370607
-0.1128406 0.0060653775 1.8341511
-0.11308415 -0.0065849284 1.8381419
-0.11235154 -0.019123629 1.8260766
-0.11277413 -0.031824235 1.8328891
-0.11234243 -0.044282753 1.8256441
-0.11270048 -0.057044324 1.831285
-0.11415959 0.1595422 1.8513197
-0.11316723 0.13280994 1.8363978
-0.11393196 0.10819074 1.8499948
-0.113277 0.094883785 1.8397243
-0.11383758 0.082605585 1.849303
-0.11311796 0.069416203 1.8378538
-0.11337056 0.056875747 1.8422749
-0.1128907 0.043993272 1.8346367
0.038184654 0.030846279 1.806939
0.025719473 0.030813724 1.8051577
0.013185425 0.030560676 1.7902933
0.00088026654 0.031187069 1.827336
-0.011720451 0.031254537 1.8312984
-0.024335677 0.031270739 1.8321751
-0.03694338 0.031269506 1.831966
-0.049549296 0.031267777 1.8316711
-0.06225371 0.031316299 1.8342878
-0.07483422 0.031296637 1.8328209
-0.087444745 0.031293392 1.8322672
-0.10037554 0.031391121 1.8376179
0.038667649 0.018641124 1.8301008
0.026031028 0.018611604 1.827322
0.013098234 0.018117238 1.7784607
0.0008812499 0.018632445 1.8295056
-0.011714479 0.018642414 1.8304685
-0.02432329 0.018652081 1.8313457
-0.036964551 0.018671548 1.8331362
-0.049443625 0.018620025 1.827843
-0.062188435 0.018669179 1.8324597
-0.074877068 0.018687734 1.8339906
-0.087494813 0.018685797 1.8334366
-0.10021649 0.018703744 1.8347933
0.038689207 0.0060491669 1.8311849
0.026017318 0.0060330415 1.8264062
0.013142249 0.0058956305 1.7845424
0.00088269683 0.0060529024 1.8325897
-0.011733702 0.006056136 1.8335527
-0.024297334 0.0060428954 1.8294301
-0.036965135 0.0060557583 1.8332206
-0.04957848 0.0060554231 1.8329252
-0.062223043 0.0060582645 1.8335432
-0.074878246 0.0060610082 1.8340749
-0.087401643 0.006053831 1.8315231
-0.10016399 0.0060629272 1.8338794
0.038793933 -0.0065709231 1.836182
0.013091136 -0.0063620163 1.7775409
0.00087027758 -0.006464975 1.8065884
-0.011708316 -0.0065465402 1.8295512
-0.024297327 -0.0065463893 1.8294284
-0.036965128 -0.0065603233 1.8332186
-0.049658898 -0.0065706037 1.8359224
-0.062021218 -0.0065417527 1.8275449
-0.074837767 -0.0065624639 1.833074
-0.087543428 -0.0065688766 1.834518
-0.10021804 -0.0065716361 1.8348762
0.037431754 -0.018532956 1.7711117
0.025889762 -0.019010812 1.8173186
0.013047112 -0.018534197 1.7714562
0.0008549788 -0.018565482 1.7745036
-0.011695431 -0.019115055 1.8274637
-0.024323262 -0.019156097 1.8313403
-0.036964521 -0.019176088 1.833131
-0.049604457 -0.019185396 1.8338352
-0.061919305 -0.019090697 1.8244594
-0.07455337 -0.019109759 1.8259922
-0.087352909 -0.019159617 1.8304347
-0.10005416 -0.019178059 1.831793
0.037430529 -0.030724712 1.7709436
0.026058404 -0.03172325 1.8291432
0.01348474 -0.031758446 1.8312777
0.00085256278 -0.030692661 1.7693359
-0.011676012 -0.031638157 1.824291
-0.024190784 -0.031585839 1.8211691
-0.036843371 -0.031687766 1.8269594
-0.049656469 -0.031840738 1.8356605
-0.061950922 -0.031666551 1.8252856
-0.074591391 -0.031698152 1.8268181
-0.087113738 -0.031677678 1.8252674
-0.099780485 -0.031708259 1.826627
0.038455013 -0.044091724 1.8196677
0.00087449088 -0.043974988 1.8150716
-0.011719858 -0.044358946 1.8310298
-0.024308115 -0.044333912 1.8299074
-0.036741618 -0.044140052 1.8217025
-0.049466364 -0.044305701 1.8284045
-0.061914261 -0.044206489 1.8240275
-0.074506864 -0.044226624 1.824561
-0.087109499 -0.044246051 1.8250084
-0.099829711 -0.044312764 1.827366
0.038494408 -0.056675784 1.8213224
0.026210785 -0.057233203 1.839532
0.013548908 -0.057234652 1.8396679
0.0008758668 -0.056556739 1.8177274
-0.011712754 -0.056926403 1.829685
-0.024280202 -0.056863416 1.8275629
-0.037019074 -0.057107866 1.8353491
-0.049516775 -0.056950543 1.8300577
-0.062246539 -0.057069797 1.8336725
-0.074866049 -0.057064801 1.8332047
-0.087387428 -0.05699724 1.8306541
-0.099715099 -0.056836307 1.8250245
0.038812339 0.18306285 1.8311422
0.026227359 0.18346493 1.835344
0.013557471 0.18346955 1.8354795
0.0008816882 0.18238614 1.8245822
-0.011713958 0.18238491 1.8245455
-0.024295894 0.18228209 1.8234276
-0.037102543 0.18335998 1.834163
-0.049709253 0.18315266 1.8318772
-0.062454231 0.18343554 1.8344786
-0.10021191 0.18298468 1.8288372
0.038862858 0.17064223 1.8343391
0.026205022 0.17064926 1.834561
0.013545927 0.17065355 1.8346969
0.00088045496 0.16955291 1.8227967
-0.011722917 0.16991912 1.8267425
-0.024419686 0.17055817 1.8335896
-0.036911219 0.16981676 1.8254151
-0.049666833 0.17035849 1.8310931
-0.06230028 0.17034641 1.8307109
-0.074971125 0.17042343 1.8312379
-0.087557599 0.17031407 1.8296885
-0.10093635 0.17157909 1.8429686
0.038619895 0.15699561 1.8235064
0.026083512 0.15725723 1.8267156
0.013468532 0.1570911 1.8248581
0.00088540866 0.15785801 1.8338746
-0.011763385 0.15785691 1.8338374
-0.024385307 0.15768319 1.8317212
-0.036918897 0.15725182 1.8265309
-0.04986462 0.15834871 1.8391843
-0.062346824 0.15782724 1.8328259
-0.075107917 0.15806861 1.8353442
-0.087481372 0.15754221 1.8288171
-0.1006332 0.15837359 1.8381264
0.03864824 0.14452186 1.8255316
0.026060311 0.14452782 1.8257524
0.013463829 0.14445321 1.82489
0.0008793762 0.14421979 1.8219485
-0.01175297 0.14507955 1.8328774
-0.024389999 0.14507622 1.8327541
-0.037145678 0.14554004 1.8385252
-0.049793851 0.14545381 1.837232
-0.0623588 0.14520873 1.8338596
-0.074920289 0.14503962 1.831399
-0.087450936 0.14486822 1.828853
-0.10022029 0.14508563 1.8311998
0.038655058 0.1319561 1.8264747
0.02606491 0.13196157 1.8266954
0.013524564 0.13246505 1.8338124
0.00088478072 0.13246626 1.8338614
-0.01170432 0.13189374 1.8258449
-0.024354829 0.13224795 1.8307087
-0.037012406 0.13238567 1.832494
-0.049668681 0.13244982 1.8331956
-0.062235374 0.13229753 1.83082
-0.074812233 0.13221455 1.8293555
-0.087371871 0.13212948 1.8278058
-0.10045406 0.13275647 1.8361304
0.038786851 0.11977185 1.833318
0.026097318 0.11951826 1.8295486
0.013482958 0.11945664 1.8286856
0.00088158168 0.1193931 1.8277367
-0.011725225 0.11952155 1.8296956
-0.024385057 0.11977735 1.8335639
-0.037018344 0.11977267 1.8333542
-0.049596261 0.1196368 1.8310636
-0.062312573 0.11982217 1.8336743
-0.074985914 0.11987633 1.834203
-0.0874331 0.11960549 1.829661
-0.10041609 0.12004348 1.8359966
0.038792461 0.10715319 1.8340925
0.02604463 0.106695 1.8263282
0.013375453 0.10600373 1.8144835
0.00088218652 0.10687216 1.8295069
-0.011758632 0.10721841 1.8354598
-0.024388583 0.10715811 1.8343382
-0.037063662 0.10726957 1.836125
-0.049603429 0.10703234 1.8318368
-0.06232157 0.10719817 1.8344487
-0.074835032 0.10701537 1.8309878
-0.087492965 0.10706212 1.8314314
-0.10053869 0.10751176 1.8387665
0.038797449 0.094529361 1.8347806
0.026047977 0.094125144 1.8270134
0.013464746 0.094127521 1.8271481
0.00088707439 0.094791628 1.8401803
-0.011804545 0.094944015 1.8431389
-0.024378557 0.09448269 1.8340276
-0.036968507 0.094376951 1.8318211
-0.049636606 0.094473757 1.8335226
-0.062161487 0.094314002 1.8301466
-0.074965939 0.094560772 1.8346689
-0.087598689 0.09455099 1.8341142
-0.10033534 0.094641678 1.8354678
0.038780876 0.081856757 1.8343836
0.02605091 0.081550747 1.8276126
0.013466263 0.081552811 1.8277475
0.00088430929 0.081862979 1.8347896
-0.011723404 0.08168561 1.8307565
-0.024341805 0.081727915 1.8316324
-0.03711256 0.0820783 1.8394138
-0.049695797 0.08194118 1.8361214
-0.062168479 0.081714369 1.8307471
-0.075095676 0.082060739 1.8382654
-0.087419502 0.081742935 1.8307242
-0.10002221 0.081733182 1.830085
0.038658965 0.069006935 1.8289046
0.026053419 0.068972409 1.8281262
0.013394568 0.068600319 1.8182683
0.00088152935 0.06901218 1.8293093
-0.01173088 0.069123849 1.8322703
-0.024383653 0.069234416 1.8351448
-0.037016213 0.069231704 1.8349354
-0.049593359 0.069153108 1.8326417
-0.062376227 0.069335051 1.8372539
-0.074779376 0.069104739 1.8307945
-0.08738067 0.069097579 1.8302411
-0.10041032 0.069388248 1.8375846
0.038683008 0.056449529 1.8303317
0.025773069 0.055779465 1.8085651
0.013381044 0.056025397 1.8166946
0.00088255544 0.056484386 1.8317362
-0.011725478 0.056483999 1.8316995
-0.024319775 0.056452136 1.830577
-0.03693923 0.056480482 1.8313673
-0.049597342 0.05653847 1.8330705
-0.062347598 0.05665667 1.8366849
-0.075068496 0.056712817 1.8382138
-0.087529466 0.056584731 1.8336649
-0.10003985 0.056516867 1.8310283
0.038413212 0.043543365 1.8176807
0.025704112 0.043212768 1.8039052
0.013294296 0.0432376 1.8050379
0.00088070164 0.043784115 1.8280797
-0.011650086 0.043593865 1.8200454
-0.024360843 0.043925267 1.8339182
-0.037001573 0.043947283 1.8347081
-0.050002702 0.044277228 1.8484037
-0.062183458 0.043894235 1.8320328
-0.07491152 0.043961599 1.8345619
-0.08838585 0.044384267 1.8519825
-0.10020849 0.043975513 1.8343657
0.19132142 0.031484917 1.8384881
0.17837998 0.031441573 1.8367645
0.16555986 0.031414609 1.8359467
0.15308802 0.031454749 1.8390259
0.14005345 0.031376064 1.8350421
0.12714885 0.031313762 1.8319649
0.11429261 0.031250942 1.8287975
0.10176051 0.031272165 1.8305329
0.089016981 0.031225236 1.8281879
0.07647568 0.031245461 1.8297515
0.063847877 0.031231353 1.8292311
0.051313922 0.031267498 1.8316227
0.19101952 0.018759754 1.8356756
0.17876904 0.018804459 1.840917
0.16556509 0.018748038 1.8361176
0.15284608 0.018741731 1.8362075
0.13990699 0.01870486 1.8332188
0.12729022 0.018708035 1.8341303
0.11454365 0.018690733 1.8329598
0.10187383 0.018683221 1.8327
0.088826932 0.018594645 1.8243628
0.076105468 0.018556233 1.82093
0.063988268 0.018679064 1.8333987
0.050954577 0.018528977 1.8187988
0.19081722 0.006077827 1.8337709
0.17819671 0.006079244 1.8350295
0.16494425 0.0060576694 1.8292302
0.15276623 0.0060752495 1.8352957
0.14006013 0.0060731061 1.8352977
0.12722358 0.00606432 1.8332173
0.11454546 0.006061981 1.8330443
0.10171032 0.0060497234 1.829789
0.089069456 0.0060471874 1.8294412
0.076313704 0.0060347309 1.8260094
0.063539632 0.0060156253 1.820491
0.051260836 0.0060455431 1.8298782
0.17838837 -0.0065928516 1.8370188
0.16547856 -0.0065836543 1.8352044
0.1527662 -0.0065814392 1.835294
0.13990915 -0.0065720277 1.8333018
0.12729219 -0.0065731443 1.8342134
0.11454541 -0.0065670647 1.8330426
0.10182036 -0.0065608788 1.8317841
0.089165874 -0.0065581324 1.831437
0.077183239 -0.0066120364 1.8469898
0.063816316 -0.0065452275 1.8284844
0.051233049 -0.0065457099 1.8288769
0.17819373 -0.019250458 1.8349395
0.16556494 -0.019254649 1.8361125
0.1525169 -0.019206731 1.8322161
0.13968047 -0.019179218 1.8302226
0.12708414 -0.019182475 1.8311324
0.11435799 -0.0191647 1.8299606
0.10165357 -0.01914661 1.8287009
0.089116186 -0.019159315 1.8303506
0.076436639 -0.019140607 1.8289174
0.063849859 -0.019142332 1.8293961
0.050982293 -0.019040037 1.8197932
0.17809214 -0.031897068 1.83377
0.16475804 -0.031766627 1.8269749
0.15226518 -0.031790208 1.8290528
0.13990231 -0.031847648 1.8330398
0.12708001 -0.031801514 1.8309585
0.1150346 -0.031961061 1.8407642
0.10192544 -0.031827986 1.8335191
0.089161508 -0.031780306 1.8311754
0.076392747 -0.031714913 1.827745
0.063536495 -0.031580232 1.8202292
0.051202767 -0.031702913 1.8276165
0.17856275 -0.044672381 1.8384845
0.16519536 -0.044490226 1.8316941
0.15283358 -0.04457115 1.8357669
0.13966917 -0.04441148 1.8297887
0.12748575 -0.044563014 1.8366827
0.11490531 -0.044593867 1.8385072
0.10203055 -0.044504002 1.8352553
0.08881963 -0.044221345 1.8239257
0.076347634 -0.044274047 1.8264868
0.063844658 -0.044326048 1.8289632
0.051533461 -0.044569455 1.839349
0.17970137 -0.057729192 1.8500758
0.16545185 -0.057218205 1.8343339
0.15249473 -0.057106528 1.8314352
0.1398865 -0.057117131 1.8324326
0.12713428 -0.057065196 1.8313495
0.11458867 -0.0571048 1.8331718
0.10196891 -0.057112675 1.8339103
0.088524587 -0.056595605 1.8175911
0.076756686 -0.057156514 1.8361284
0.063736774 -0.056822501 1.8256208
0.051335771 -0.057011694 1.8320076
0.17824943 -0.069931515 1.8347179
0.16534951 -0.069833882 1.8329052
0.15338714 -0.070148848 1.8419573
0.13987522 -0.069748051 1.8319998
0.12739857 -0.069835141 1.8349049
0.11464127 -0.069770619 1.8337364
0.10201572 -0.069780231 1.8344754
0.089385249 -0.069788739 1.8351283
0.077371433 -0.070360817 1.8506719
0.06463071 -0.070367135 1.8511564
0.10208913 0.18317859 1.8307276
0.089353204 0.18300352 1.829393
0.076557539 0.18262827 1.8259826
0.064261571 0.18353212 1.8354125
0.051340967 0.18265788 1.8268551
0.19136164 0.17117158 1.8338618
0.17803475 0.17056924 1.828186
0.16586159 0.17106465 1.8343167
0.15344843 0.1713741 1.8383822
0.14053506 0.17113039 1.8364068
0.12731303 0.17042504 1.8293751
0.11512008 0.17109361 1.837158
0.10249664 0.1712088 1.8388941
0.089469478 0.17058684 1.8325877
0.076864086 0.17069659 1.83415
