ply
format ascii 1.0
comment Exported by SUIT
element vertex 1152
property float32 x
property float32 y
property float32 z
property float32 i
end_header
-460.97592 1908.75 103.66083 0.025070572
-449.1652 1920.125 107.0116 0.025223164
-435.35947 1923.1586 107.33661 0.025040055
-421.13525 1924.2555 106.98065 0.024734875
-402.8595 1905.8914 99.56476 0.02449073
-385.24197 1889.2183 92.80426 0.024277104
-370.94662 1888.1145 91.73944 0.023819333
-355.81992 1882.279 88.98328 0.024612803
-344.637 1897.6469 93.948 0.024933241
-331.00903 1899.9614 94.19757 0.025467308
-313.98386 1881.7432 87.0354 0.026276035
-299.296 1876.4067 84.57019 0.026474403
-288.91675 1898.8942 92.193665 0.025696194
-277.02826 1912.9424 96.78058 0.024719616
-266.4824 1938.115 105.40277 0.024002442
-254.02483 1951.097 109.638794 0.023620967
-240.02902 1952.7885 109.822266 0.023163196
-227.52524 1967.4781 114.71533 0.023590447
-214.22113 1976.4753 117.57684 0.023865111
-199.57896 1973.2096 116.044556 0.024277104
-184.99464 1969.8406 114.50116 0.02418555
-170.3881 1965.431 112.60919 0.023300527
-154.07799 1938.3959 102.60681 0.02279698
-137.48814 1901.8466 89.2157 0.02121004
-121.305016 1863.2882 75.135376 0.020477608
-107.026825 1848.0969 69.481384 0.020325018
-93.25484 1838.4429 65.842224 0.020935379
-80.43785 1847.4995 68.94617 0.020767529
-67.63261 1860.2327 73.39142 0.021301595
-53.860832 1845.5963 68.033264 0.021896696
-40.73206 1850.6245 69.7572 0.022720683
-27.562283 1857.4457 72.147156 0.022583352
-14.233183 1855.7063 71.48718 0.022751201
-0.9316151 1856.6993 71.83057 0.02261387
12.339814 1851.013 69.79962 0.021942474
25.711197 1858.4124 72.48767 0.022217136
39.16888 1864.7781 74.8277 0.023010606
52.481846 1862.5828 74.11798 0.02279698
65.798706 1861.2373 73.736145 0.022522317
79.099266 1859.801 73.34418 0.022201877
92.707436 1864.855 75.30621 0.02151522
104.80061 1841.6201 67.12933 0.021179523
117.70302 1836.1609 65.358215 0.019745175
130.33424 1827.7986 62.565308 0.019134814
143.65668 1829.6774 63.475708 0.018509194
156.6141 1826.7737 62.689026 0.018020906
171.52533 1845.3425 69.65192 0.01841764
184.56827 1842.2496 68.84473 0.018173495
197.87566 1841.8772 69.039734 0.018005647
216.61362 1889.1195 86.41901 0.019150073
238.18184 1953.952 110.184265 0.019485772
257.93082 1997.0995 126.17682 0.02044709
275.9061 2022.3425 135.7497 0.020584421
290.79712 2023.2 136.54999 0.020737011
305.15692 2020.2278 135.9925 0.020965897
321.24472 2028.3207 139.4635 0.02090486
335.47723 2024.2122 138.54742 0.021118486
352.5387 2036.7146 143.67554 0.021179523
366.30923 2029.614 141.72845 0.020737011
380.86105 2027.0542 141.45264 0.020233463
395.5756 2025.3188 141.50226 0.02041657
410.47186 2024.4045 141.87689 0.020065613
432.30286 2056.581 154.32593 0.020492867
448.8446 2061.8533 157.02228 0.020370794
463.6355 2058.7246 156.6867 0.020553902
477.98218 2053.6582 155.66986 0.020325018
492.93787 2051.245 155.6485 0.020340277
504.7337 2035.9182 150.92725 0.02044709
520.97107 2038.7979 152.89496 0.019958802
537.0391 2040.6421 154.51538 0.01983673
546.80115 2018.7026 147.42828 0.020157168
565.07007 2028.5244 152.03638 0.01983673
579.1295 2022.7799 150.94952 0.020141909
587.32855 1997.0345 142.50812 0.019958802
599.79144 1986.6283 139.73804 0.020111391
614.9083 1985.1603 140.2951 0.02012665
612.1821 1926.9302 119.845215 0.020675974
626.3387 1923.5701 119.72644 0.021499962
652.035 1955.0242 132.578 0.0212253
668.83356 1958.5283 135.09088 0.020569162
684.4826 1958.3326 136.26001 0.02059968
700.48145 1958.9058 137.7489 0.020996414
706.5525 1931.8657 128.93463 0.020492867
727.3678 1945.5261 135.38019 0.020325018
738.38574 1932.5269 131.86163 0.020523384
755.39124 1935.3096 134.29913 0.020401312
778.0303 1951.9926 142.01721 0.020019837
795.2973 1954.4556 144.42084 0.019699397
814.4411 1961.1389 148.46155 0.019546807
835.1884 1971.1339 153.80493 0.018936446
859.1009 1987.8788 161.76733 0.018341344
883.67847 2005.2545 170.03442 0.017990386
894.327 1990.4792 166.08905 0.017898833
886.05994 1934.3906 146.34259 0.018387122
907.992 1945.3608 152.26392 0.018432898
942.62384 1982.6028 168.3457 0.018295567
954.9292 1971.7809 166.0072 0.018204013
967.962 1962.584 164.3161 0.017883575
981.33673 1954.1498 162.94281 0.016769664
1004.47455 1965.0104 169.08667 0.017425803
1003.5469 1928.6206 156.89606 0.018020906
1002.15106 1892.3422 144.71649 0.018219272
1014.9913 1883.6912 143.31598 0.01808194
1012.86035 1847.5482 131.14825 0.018204013
1023.5329 1835.5243 128.43573 0.017593652
1037.7953 1830.0388 128.31805 0.018509194
1053.9121 1827.7313 129.48706 0.018463416
1071.0023 1826.9269 131.28912 0.017929351
1090.5444 1830.0491 134.69482 0.01760891
1096.0616 1809.471 128.68689 0.017761502
1082.6064 1758.2181 110.3858 0.017975127
1099.3969 1757.1068 112.14624 0.017380025
1118.7515 1759.8552 115.502075 0.016769664
1147.9012 1777.5714 124.960205 0.015976196
1173.2366 1788.6218 131.80511 0.015396353
1194.6161 1793.0908 136.04572 0.015014878
1236.1699 1827.2393 152.4643 0.014480812
1272.9459 1853.0742 165.61792 0.0128786145
1361.3577 1952.5027 209.15271 0.011764706
1418.0522 2003.5035 233.04181 0.011535821
1455.1967 2025.2716 245.0285 0.009918365
-823.1778 1121.6874 -137.51743 0.037979707
-818.24384 1131.9939 -135.00964 0.04086366
-813.2021 1142.2904 -132.50562 0.042694744
-802.6514 1144.7682 -133.14697 0.04492256
-807.07196 1169.1241 -124.991974 0.04463264
-791.6155 1164.4382 -128.48038 0.04805066
-791.96155 1183.3524 -122.52643 0.048584726
-798.2831 1211.8748 -112.7785 0.043259326
-799.6289 1233.3535 -105.86188 0.03434806
-810.822 1270.9612 -92.608154 0.018295567
-867.5139 1382.9327 -50.178223 0.011032273
-854.92664 1384.8611 -51.125366 0.0121767
-851.1475 1401.3153 -46.368042 0.012832837
-837.045 1400.6469 -48.28839 0.0136110475
-828.7165 1409.6875 -46.40338 0.013931487
-815.12573 1409.6323 -48.030273 0.014175631
-809.4804 1423.5017 -44.247375 0.014084077
-797.7158 1426.583 -44.618225 0.0116731515
-798.17474 1452.0464 -36.368042 0.0056916154
-802.3305 1485.1051 -25.230713 0.0045319297
-828.5293 1561.0574 2.256958 0.005477989
-830.20544 1591.9978 12.473145 0.008880751
-806.6228 1574.0532 4.0820312 0.014602884
-800.6675 1590.6095 8.837097 0.016159303
-799.09906 1616.5151 17.128479 0.016296636
-788.17554 1623.7048 18.343567 0.016601816
-779.21375 1635.1031 21.16156 0.017273214
-765.35565 1636.1514 20.104797 0.017578393
-763.6726 1663.7975 29.041565 0.018295567
-754.6934 1675.9431 32.16919 0.018783856
-744.4439 1685.4453 34.322144 0.01994354
-732.234 1690.5408 34.85089 0.021087969
-724.763 1706.887 39.580444 0.022217136
-712.0485 1710.9688 39.770447 0.023025865
-699.31573 1714.9587 39.950928 0.023346303
-687.9581 1722.375 41.420227 0.023773557
-675.50775 1727.0731 41.90747 0.023910888
-665.377 1737.8729 44.661438 0.02432288
-655.1293 1748.6176 47.409607 0.024536507
-642.5049 1753.0851 47.873352 0.02481117
-629.85297 1757.4644 48.328003 0.02497902
-622.4464 1776.9371 54.315857 0.02496376
-612.6701 1790.127 58.018616 0.024933241
-601.2531 1798.7827 60.084473 0.0243534
-592.36487 1815.4623 65.08319 0.024444953
-584.69415 1836.6127 71.71283 0.024093995
-585.9312 1887.5498 89.13428 0.024261845
-576.151 1904.2 94.13086 0.024002442
-560.06635 1899.9487 91.5918 0.023971923
-556.2335 1938.2788 104.439026 0.024078736
-537.7597 1925.6622 98.93231 0.024048219
-524.6569 1932.0431 100.297424 0.02418555
-508.14334 1925.5446 97.05939 0.024246586
-499.19833 1948.208 104.31525 0.024475472
-487.69614 1961.6721 108.28314 0.024887465
-473.8326 1965.8878 108.95795 0.02481117
-458.0175 1961.7288 106.6637 0.024414435
-445.7991 1973.1144 109.94983 0.024399176
-430.24323 1969.6622 107.962585 0.024155032
-415.72784 1970.7145 107.60974 0.023956664
-399.72583 1964.2601 104.611206 0.023804074
-384.19864 1959.537 102.25897 0.023422599
-369.10757 1956.5531 100.55408 0.023743039
-353.41125 1949.7423 97.518555 0.02465858
-338.79462 1948.3943 96.450195 0.024414435
-322.36948 1935.7653 91.410645 0.025101092
-309.67624 1945.3842 94.280945 0.025055313
-298.26965 1964.2573 100.44537 0.02497902
-289.8272 2005.4918 114.53162 0.024460211
-277.2487 2020.5195 119.36365 0.024078736
-262.41995 2019.5596 118.56891 0.023636226
-247.50548 2017.559 117.432495 0.023666743
-233.49258 2022.9539 118.9306 0.023346303
-219.21468 2026.3788 119.757324 0.02325475
-205.27676 2033.4631 121.89734 0.02323949
-190.90013 2036.6973 122.70392 0.022751201
-175.19661 2024.791 118.20459 0.02293431
-158.85759 2002.4221 110.05188 0.022293432
-142.03687 1968.6359 97.913086 0.020309757
-125.40072 1930.0106 84.104614 0.019531548
-110.346725 1909.1547 76.574585 0.018860152
-96.11599 1898.5544 72.67609 0.019455252
-82.732285 1903.8787 74.397644 0.019699397
-68.8707 1897.7974 72.13458 0.020263981
-54.96347 1886.9044 68.20465 0.02136263
-41.707798 1898.5538 72.21564 0.021622034
-28.150988 1900.6794 72.90399 0.021438926
-14.68078 1917.8083 78.88336 0.0221561
-0.95855427 1914.0878 77.563965 0.022339208
12.70392 1909.3298 75.902954 0.022278173
26.363483 1909.1963 75.88855 0.02232395
39.688354 1892.9329 70.232056 0.021652551
53.389046 1898.2742 72.18573 0.021271076
66.47454 1883.7181 67.172485 0.021301595
80.82514 1903.9569 74.40613 0.021744106
95.04905 1915.6089 78.64758 0.021774624
108.43422 1909.2595 76.585754 0.021271076
121.85385 1904.7042 75.17688 0.01997406
134.81595 1894.4116 71.77179 0.018829633
148.58905 1896.2651 72.66113 0.017578393
162.23604 1896.1423 72.87848 0.017059587
176.23509 1899.6846 74.40936 0.016815443
189.73422 1897.493 73.94476 0.017334249
201.81432 1882.072 68.839355 0.017593652
219.43498 1917.2157 81.584656 0.017380025
241.75102 1986.8756 106.54706 0.018341344
263.9898 2047.895 128.51178 0.019623103
281.29242 2065.6794 135.25354 0.020111391
300.9907 2098.277 147.26648 0.020553902
314.1821 2084.0298 142.74866 0.020553902
329.52844 2084.625 143.50519 0.020691235
344.9002 2085.1118 144.25043 0.020386053
359.49878 2080.838 143.33478 0.019867247
373.39056 2072.7488 141.08966 0.02027924
390.6423 2083.134 145.42932 0.020370794
405.90933 2082.2603 145.79999 0.020233463
420.81326 2079.4277 145.50104 0.020233463
436.27646 2079.2659 146.17908 0.019699397
456.53873 2101.147 154.7456 0.019439993
473.84506 2108.1038 158.0296 0.019928282
490.42645 2111.2444 159.98438 0.020325018
506.20322 2110.5854 160.61145 0.02044709
520.19507 2102.475 158.5987 0.020111391
533.404 2091.5295 155.59198 0.020157168
550.29877 2095.1301 157.82867 0.019714657
562.8672 2082.1777 154.14746 0.019409476
566.98773 2039.1033 139.64026 0.019150073
578.51807 2024.2526 135.29596 0.020309757
590.66095 2012.0652 131.92859 0.020584421
610.5137 2026.0642 138.0459 0.020202946
630.87555 2040.791 144.47229 0.020569162
643.5396 2030.0946 141.72705 0.020828566
657.5364 2023.8213 140.60797 0.020675974
672.96185 2021.9426 141.11188 0.020767529
686.8826 2015.4731 139.97278 0.02027924
699.5113 2005.3376 137.5202 0.020553902
715.8212 2005.8217 138.97015 0.020035096
713.5022 1954.6168 121.5224 0.020828566
737.086 1975.3718 130.44305 0.020675974
751.30115 1970.2463 129.91125 0.020508125
777.4181 1995.8966 140.74042 0.019897765
812.97253 2044.1562 159.98267 0.018905928
835.1175 2056.9263 166.20837 0.018966964
851.0134 2053.7417 166.57831 0.019073777
866.1782 2048.6936 166.28821 0.019104296
882.06256 2045.2766 166.63379 0.018997483
896.8107 2039.1387 165.99683 0.01855497
914.98303 2040.679 168.25653 0.017593652
914.06995 1999.8324 154.68347 0.01763943
927.3165 1990.8917 153.05469 0.018585488
948.5517 1998.9954 157.86108 0.018280309
972.8204 2012.8784 164.8999 0.018005647
990.69165 2012.9102 166.76709 0.017975127
992.1724 1979.7253 156.08649 0.018051423
1000.5032 1960.9846 150.87073 0.01747158
989.9654 1906.0215 131.86145 0.018860152
976.49384 1847.1085 111.27496 0.01980621
998.79285 1857.0226 116.963135 0.01980621
1028.0662 1879.2108 127.4234 0.018905928
1065.0392 1914.3582 142.95984 0.018463416
1090.9772 1928.4237 150.47345 0.017883575
1106.3702 1923.2897 150.62665 0.017746242
1114.1366 1904.9194 145.67139 0.017547876
1126.9958 1895.521 144.21136 0.017273214
1140.2671 1886.8527 143.05829 0.01731899
1147.5531 1868.3772 138.0857 0.01669337
1162.6207 1862.7988 138.1814 0.016418708
1169.5887 1844.2584 133.19714 0.015884642
1244.2858 1932.0416 170.26477 0.014694438
1276.919 1952.0242 180.69885 0.014633402
1328.7079 2000.1736 202.44678 0.013702602
1352.2169 2004.3265 206.7973 0.013443198
1369.984 1999.6202 207.65894 0.01280232
1389.9095 1997.8958 209.75787 0.012039368
1441.4893 2041.0928 230.03485 0.011535821
1481.6493 2066.6543 243.34534 0.009979401
-818.2294 1117.1412 -149.58829 0.03837644
-809.4824 1122.0002 -149.28552 0.042114902
-807.8071 1136.9249 -144.99258 0.043259326
-801.63275 1145.6207 -143.16269 0.04551766
-809.8156 1175.5283 -133.00989 0.044510566
-799.61456 1178.7367 -133.34155 0.047455557
-792.5502 1186.6278 -131.82852 0.05008011
-792.144 1204.8492 -126.29648 0.04942397
-788.95605 1219.1193 -122.31064 0.049439233
-782.0602 1227.773 -120.497314 0.045304038
-805.1037 1284.8806 -100.04578 0.027100023
-859.50885 1395.1191 -59.335754 0.01248188
-868.87286 1433.6378 -46.26056 0.011779965
-854.06976 1432.2551 -48.44409 0.013153277
-856.0247 1459.4982 -39.71808 0.013244831
-845.38763 1465.3898 -39.107788 0.0132753495
-836.5721 1474.5195 -37.255188 0.013122759
-814.3583 1459.4894 -44.49005 0.010971237
-799.65576 1457.5789 -46.734497 0.005264363
-799.77783 1483.1804 -38.63855 0.0046387427
-833.5342 1573.5913 -6.350342 0.004730297
-834.715 1603.7874 3.3545532 0.0050202184
-827.3583 1617.9878 7.088501 0.007461662
-813.92395 1620.2693 6.4090576 0.013092241
-804.25287 1630.1179 8.555908 0.01608301
-795.717 1642.479 11.643555 0.016800184
-791.0927 1663.3846 17.885864 0.017364766
-787.0089 1686.0282 24.761597 0.017090105
-772.05707 1685.3741 23.095276 0.017486839
-765.2627 1702.7925 28.067322 0.017669948
-757.50195 1718.4607 32.40393 0.01808194
-741.3429 1714.9272 29.758362 0.01904326
-736.2934 1737.483 36.6239 0.02043183
-733.8499 1767.0663 46.03308 0.020859083
-719.67365 1768.5643 45.27057 0.021484703
-705.8653 1770.835 44.815308 0.022049287
-697.5379 1787.1465 49.44568 0.022674907
-681.9652 1784.8156 47.379578 0.02323949
-670.7473 1793.9102 49.447388 0.023651484
-658.46814 1800.2648 50.550964 0.023819333
-649.6193 1816.362 55.160156 0.02369726
-638.7152 1827.0533 57.848206 0.023910888
-628.6064 1840.3749 61.489807 0.023956664
-615.0695 1843.7526 61.605774 0.024078736
-603.2661 1852.4425 63.63379 0.024124514
-595.92834 1875.5151 70.78259 0.024399176
-581.0594 1875.0365 69.59265 0.02450599
-571.1233 1890.7764 74.16742 0.023926146
-557.27966 1893.7429 74.24304 0.02340734
-553.2631 1931.2266 86.51642 0.023483634
-545.96686 1958.7064 95.257996 0.02325475
-534.62103 1972.4634 99.17529 0.023926146
-521.6727 1980.6633 101.15588 0.02418555
-507.23956 1983.2759 101.19684 0.024002442
-496.41953 2000.4948 106.38153 0.024155032
-482.0847 2003.8499 106.72705 0.023575189
-471.14157 2021.862 112.2215 0.023453116
-454.5937 2015.8052 109.32422 0.023010606
-443.16138 2032.7478 114.48169 0.023010606
-427.44742 2030.1764 112.853516 0.023117417
-412.35495 2030.2719 112.18268 0.0230869
-397.2841 2030.2601 111.50098 0.023285268
-384.8428 2044.0942 115.657104 0.023300527
-370.88867 2050.4055 117.219055 0.023041124
-356.7049 2055.6926 118.448364 0.0230869
-342.15784 2059.0183 119.020935 0.023315785
-327.72992 2063.1797 119.90698 0.023971923
-315.3721 2081.2776 125.64026 0.023178454
-300.49533 2083.3855 125.86023 0.023056382
-286.87982 2094.7654 129.30963 0.02293431
-272.51477 2101.369 131.12988 0.023163196
-257.50052 2103.1824 131.3197 0.023178454
-242.4749 2104.8928 131.4986 0.023208972
-227.43861 2106.5002 131.66718 0.023178454
-211.82736 2102.3574 129.87848 0.0230869
-196.6367 2101.8713 129.37622 0.023544671
-181.868 2105.9924 130.4856 0.023392081
-163.86435 2069.4668 117.628174 0.021881437
-144.43254 2005.4401 95.34155 0.019775692
-127.37479 1963.9044 80.83014 0.018661784
-112.42681 1948.675 75.39685 0.018524453
-98.03284 1939.9501 72.22522 0.018768597
-83.44307 1923.5648 66.444885 0.019378958
-70.10964 1935.4302 70.39752 0.019668879
-56.14878 1931.1356 68.81897 0.02059968
-42.643253 1944.71 73.40234 0.021881437
-28.809523 1948.7368 74.72742 0.022598611
-14.885053 1947.9404 74.418335 0.022995345
-0.9766074 1953.6691 76.37329 0.023117417
12.968671 1952.6826 76.04413 0.023498895
26.93877 1954.4375 76.679504 0.023819333
40.99336 1958.9332 78.2793 0.023666743
54.876133 1954.8237 76.94531 0.022842756
68.4056 1942.1128 72.67822 0.022201877
82.31407 1942.5427 72.94885 0.02104219
96.000145 1938.1538 71.58551 0.020187685
109.84087 1937.4498 71.51141 0.019638361
123.138466 1928.1561 68.50537 0.01904326
137.97252 1942.3628 73.60602 0.018112458
150.8922 1929.1122 69.282166 0.017059587
163.71132 1916.7233 65.274475 0.016647592
177.22821 1913.6726 64.50311 0.015945679
191.26988 1916.1788 65.66864 0.01652552
204.65723 1912.0015 64.553406 0.016357671
225.66696 1975.4113 86.77557 0.01669337
248.94475 2049.8938 112.86719 0.01823453
271.4923 2110.0745 134.07404 0.019272145
288.45386 2122.2285 138.7345 0.020035096
305.6022 2134.2524 143.38159 0.020111391
318.74237 2118.0725 138.30054 0.020233463
333.42673 2113.0347 137.09656 0.019928282
351.4239 2128.4414 143.00189 0.020019837
369.17847 2140.9055 147.92194 0.019668879
384.96674 2141.1196 148.62384 0.019577324
401.12375 2143.0828 149.9607 0.020096133
418.94482 2153.2913 154.19391 0.019775692
435.07147 2154.0803 155.1831 0.02027924
450.84647 2152.9 155.51465 0.020035096
467.62457 2156.2346 157.44861 0.020019837
479.12332 2135.4229 150.98285 0.019668879
490.77686 2116.4043 145.15692 0.019699397
506.12677 2113.9084 145.12689 0.019211108
530.93695 2149.9226 158.61542 0.019409476
548.39886 2154.4895 161.13293 0.01983673
565.0006 2155.2559 162.34973 0.019790951
577.96814 2142.18 158.7298 0.019821469
589.02014 2122.6416 152.85272 0.019058518
596.4725 2091.2112 142.7945 0.018814374
611.1799 2086.1548 142.04865 0.019562066
625.5773 2080.0916 140.97217 0.020370794
642.41833 2082.0825 142.7724 0.020309757
657.61957 2078.5212 142.63684 0.020294499
669.0321 2063.1296 138.32648 0.020355536
685.60205 2063.878 139.7727 0.020294499
700.0981 2058.215 138.96704 0.020019837
714.86084 2053.349 138.47131 0.019882506
731.1724 2052.8474 139.56268 0.01980621
744.93884 2045.0918 138.0877 0.020019837
763.8921 2051.47 141.70825 0.020141909
785.6568 2064.78 147.86261 0.020340277
804.5829 2069.9304 151.12994 0.019623103
820.8458 2067.8643 151.83466 0.019302662
850.92267 2099.978 164.93109 0.018463416
868.1804 2099.3232 166.23676 0.01889067
887.6739 2103.78 169.43378 0.019058518
897.5917 2085.3965 164.36407 0.01887541
915.6305 2086.1077 166.26556 0.01855497
926.7986 2071.0686 162.4502 0.018341344
939.36707 2059.4343 159.89526 0.017853055
956.19244 2057.2039 160.81085 0.017486839
962.94836 2033.3748 153.81464 0.017746242
992.77045 2058.338 164.8103 0.017883575
1005.9532 2048.014 162.84387 0.017853055
1009.7595 2018.9062 153.93713 0.017929351
1023.04944 2009.3326 152.27429 0.017547876
1038.8624 2004.7394 152.48853 0.017654689
1035.2977 1963.0153 138.86707 0.01841764
1027.6218 1914.7361 122.74933 0.019089036
1060.0098 1941.8107 134.86743 0.018387122
1082.7615 1950.2297 140.05756 0.018066682
1100.1213 1948.4851 141.4693 0.017837796
1115.1642 1942.4695 141.302 0.017395286
1135.4166 1945.3855 144.55573 0.017486839
1157.2167 1950.5734 148.72375 0.0171664
1180.6158 1958.0021 153.80292 0.016601816
1228.3757 2004.9937 174.1018 0.015976196
1252.8954 2012.6055 179.42212 0.015976196
1260.9119 1993.4075 174.47107 0.0153505765
1291.7207 2010.273 183.46826 0.014251927
1334.2108 2044.3679 199.24054 0.013763638
1378.827 2080.3567 215.88586 0.013488975
1411.3488 2096.8496 225.05963 0.012954909
1421.2131 2079.1497 220.92712 0.012436103
1436.2925 2069.2546 219.86884 0.011902037
1448.0293 2054.5796 216.9494 0.011154345
1490.4841 2083.2966 231.22815 0.009719997
-823.857 1127.1895 -155.84503 0.035309378
-810.63336 1125.8666 -157.9548 0.040115967
-802.93646 1132.2316 -157.06488 0.044129092
-796.2709 1140.1182 -155.57843 0.047562372
-797.02625 1159.0125 -149.86551 0.04776074
-801.7865 1184.3143 -141.72598 0.046677347
-793.65015 1190.635 -140.84918 0.04975967
-785.4642 1196.903 -139.97977 0.051895935
-795.16156 1231.2314 -128.48416 0.049057756
-788.1955 1239.9366 -126.70392 0.04988174
-789.15735 1261.5713 -120.056366 0.04760815
-788.8597 1281.6533 -114.01248 0.03823911
-823.03546 1359.8092 -86.29254 0.019775692
-879.80145 1478.7028 -43.546265 0.012222476
-864.74585 1477.3447 -45.68463 0.013504234
-864.3677 1501.492 -38.3443 0.013550011
-863.6887 1525.706 -30.998413 0.013504234
-842.0363 1512.4752 -37.45758 0.010711834
-806.5665 1473.0837 -53.46393 0.004974441
-798.5509 1483.667 -51.06122 0.0046692607
-852.6553 1613.0587 -5.2581787 0.0049286643
-865.3344 1666.287 12.585083 0.004760815
-858.41095 1682.416 16.88147 0.0052338447
-837.34094 1670.4196 10.987427 0.007873655
-816.07336 1657.3605 4.7630005 0.013962005
-806.1329 1667.2458 6.868408 0.014847028
-785.9775 1655.5638 1.2278442 0.015976196
-781.9766 1678.2147 7.9622803 0.016433967
-783.97296 1714.7452 19.661072 0.017090105
-767.7253 1711.4271 17.091614 0.01731899
-771.7066 1754.1462 30.973572 0.017380025
-760.1702 1762.0472 32.431946 0.018204013
-747.82874 1768.1218 33.260376 0.01918059
-737.60986 1779.3859 35.949158 0.020065613
-727.2714 1790.5948 38.632324 0.020935379
-724.484 1821.1923 48.172363 0.021911956
-712.05707 1827.9095 49.28894 0.022125581
-703.27057 1844.3184 53.8338 0.022095064
-692.9706 1857.1312 57.12494 0.022598611
-679.6172 1861.8544 57.595764 0.022629129
-669.40405 1875.4366 61.187927 0.022903793
-657.17145 1883.5844 62.895813 0.023163196
-643.3389 1887.1571 63.02887 0.022842756
-631.57623 1896.9429 65.348145 0.022995345
-617.67 1900.3329 65.46344 0.023590447
-607.4545 1915.3976 69.65265 0.02355993
-594.552 1922.2457 71.00867 0.02355993
-585.39374 1941.7421 76.75928 0.02325475
-577.8498 1967.5847 84.709656 0.0230869
-571.784 1999.809 94.86322 0.023361562
-557.714 2004.5985 95.56769 0.02355993
-550.0054 2033.1233 104.45795 0.023773557
-539.04694 2050.6199 109.56348 0.023819333
-521.8104 2044.1482 106.460266 0.023529412
-509.45206 2056.8904 109.973145 0.023056382
-493.4214 2054.795 108.425964 0.023010606
-480.22244 2064.5977 110.974915 0.022705425
-466.70422 2073.3936 113.19971 0.022720683
-452.28586 2078.3955 114.15143 0.023117417
-437.4341 2081.443 114.460754 0.02293431
-422.93765 2086.2483 115.39307 0.022674907
-412.00742 2109.5806 122.64917 0.022369726
-395.20273 2103.0264 119.763245 0.022415504
-380.8556 2109.415 121.30139 0.022690166
-365.6354 2111.0361 121.24512 0.022812238
-352.72385 2126.5884 125.935425 0.022339208
-339.16895 2139.2556 129.66663 0.022430763
-325.31235 2150.9023 133.07227 0.022842756
-308.625 2143.6887 130.12048 0.022705425
-291.9295 2135.412 126.838684 0.022842756
-277.05978 2140.179 127.99109 0.022705425
-261.79526 2142.0222 128.18042 0.022552835
-242.75467 2110.7893 117.236694 0.022873273
-230.82861 2141.6235 127.25574 0.023010606
-215.93494 2146.9238 128.68457 0.022873273
-200.10294 2142.6843 126.9234 0.02279698
-183.12943 2124.1633 120.379944 0.02246128
-165.01938 2087.5579 107.77966 0.021087969
-146.55977 2038.5166 91.02869 0.019302662
-128.6813 1987.4353 73.62616 0.01826505
-113.69697 1974.0696 68.938354 0.017761502
-98.908455 1960.5967 64.239624 0.018280309
-84.8862 1960.2782 63.98633 0.018966964
-70.873535 1959.8633 63.723022 0.019668879
-56.952984 1962.1952 64.40497 0.020691235
-43.2501 1975.8052 68.89746 0.02168307
-29.232637 1980.792 70.51495 0.0221561
-15.153995 1986.6312 72.44104 0.022812238
-0.9909177 1985.7385 72.128296 0.023208972
13.227391 1995.1761 75.30798 0.023773557
27.346268 1987.4542 72.74646 0.02403296
41.474518 1985.3231 72.08533 0.024246586
55.36329 1975.5153 68.86749 0.02418555
69.51216 1976.9833 69.45996 0.023743039
83.565475 1975.513 69.087524 0.022751201
97.60166 1973.9464 68.7052 0.02151522
111.67326 1973.2311 68.63135 0.01994354
125.680016 1971.4733 68.22925 0.01873808
139.13547 1962.0546 65.272156 0.017685207
153.4895 1965.7814 66.75964 0.016815443
167.50403 1964.6838 66.64642 0.016266117
181.94408 1968.211 68.11334 0.015411613
195.0437 1957.4836 64.80084 0.014999619
211.49951 1979.6732 72.605286 0.01591516
225.61401 1978.1783 72.4516 0.01655604
250.93407 2069.7844 103.74194 0.017547876
274.56366 2137.6216 127.06543 0.018951705
291.317 2146.968 130.67786 0.019928282
308.48367 2158.0664 134.91254 0.020248722
324.14417 2157.7786 135.32568 0.020325018
340.2566 2160.1924 136.67963 0.020080874
359.0242 2178.401 143.41351 0.020080874
374.55237 2175.8904 143.15704 0.019394217
394.72363 2199.4177 151.7641 0.019455252
410.57645 2197.594 151.80005 0.018905928
427.50244 2201.2483 153.72504 0.019089036
442.4537 2194.5461 152.15558 0.019562066
459.83948 2199.821 154.68994 0.019577324
479.51715 2215.1665 160.69073 0.019531548
495.5238 2212.7527 160.66833 0.019775692
511.30966 2209.3027 160.31891 0.019882506
521.8158 2183.588 152.3783 0.0193637
532.662 2160.6028 145.38147 0.019302662
552.03204 2172.5386 150.37177 0.0193637
568.4977 2172.3733 151.24615 0.01904326
581.80383 2160.1692 148.01111 0.019394217
594.96783 2147.8887 144.76868 0.019485772
610.8292 2145.5798 144.98267 0.020019837
621.13275 2124.015 138.57715 0.019623103
641.19507 2136.073 143.80518 0.01998932
657.299 2134.341 144.30145 0.02041657
675.4018 2138.8325 146.98535 0.020202946
690.9904 2135.0435 146.82965 0.019867247
705.67175 2128.4387 145.72223 0.020096133
716.3546 2110.0376 140.52954 0.019745175
734.5568 2114.0376 143.16571 0.019134814
749.06287 2107.142 142.03027 0.018966964
768.9926 2115.3376 146.20422 0.018768597
797.6288 2146.531 158.49023 0.018829633
812.3411 2139.2097 157.31311 0.01887541
836.554 2156.6135 164.86786 0.018631266
849.23584 2143.7253 161.79333 0.01870756
863.90466 2136.0579 160.58215 0.018295567
881.7546 2136.2065 162.1648 0.017929351
897.0882 2130.0752 161.55457 0.018204013
912.38324 2123.8367 160.93372 0.018524453
934.8418 2134.052 166.20569 0.018509194
946.7079 2119.728 162.76422 0.018142978
962.3365 2114.008 162.41852 0.018142978
975.94727 2103.8577 160.51172 0.017700465
976.94653 2066.937 148.99762 0.017303731
964.35156 2002.6503 127.592896 0.018371863
969.6184 1977.124 120.12341 0.019134814
976.6845 1955.885 114.199646 0.019119555
992.06714 1951.6326 114.444885 0.018478675
1014.3935 1960.8043 119.6087 0.018997483
1042.1912 1979.8822 128.44464 0.01872282
1077.9084 2012.9543 142.47937 0.018478675
1110.9885 2039.7681 154.32202 0.0180972
1127.0868 2034.5298 154.46332 0.017761502
1145.0281 2032.4923 155.81738 0.017120622
1160.1787 2025.3413 155.31726 0.017257953
1167.6656 2004.8926 149.90906 0.017059587
1193.2499 2015.6373 156.11243 0.01654078
1211.239 2013.0448 157.40338 0.0162356
1249.5118 2043.685 171.17932 0.015838865
1293.2878 2082.0005 187.95477 0.015091172
1310.3704 2076.2173 188.24762 0.0149691
1328.9722 2072.7126 189.43579 0.01420615
1364.1462 2094.6597 200.31714 0.013199054
1397.0895 2112.2397 209.6402 0.013504234
1431.9423 2131.8464 219.83154 0.013061723
1451.649 2128.1877 221.21173 0.012619211
1462.1936 2111.0103 217.43738 0.011963073
1451.8248 2064.0886 202.19543 0.010864424
1503.1656 2105.3306 221.00891 0.009277485
-822.22186 1127.1296 -166.06247 0.035461966
-813.98224 1132.7931 -165.4772 0.03881895
-808.9846 1143.1005 -163.12766 0.04086366
-797.38354 1143.9518 -164.33066 0.04443427
-794.9178 1158.1448 -160.51169 0.04805066
-801.8278 1186.6622 -151.35474 0.047562372
-796.83496 1197.7743 -148.71585 0.049393453
-783.4278 1196.049 -150.83597 0.053559165
-798.28644 1238.4918 -136.60101 0.0483711
-797.36755 1256.9329 -131.28061 0.049332418
-794.72205 1272.9858 -126.851776 0.051117722
-788.9165 1284.1698 -124.21384 0.050339513
-797.67346 1319.9132 -112.60858 0.042954147
-814.661 1370.6467 -95.598145 0.02870222
-854.3627 1462.1482 -63.87506 0.014999619
-879.58734 1531.0459 -40.49237 0.013092241
-866.6145 1533.7672 -41.09552 0.013061723
-855.4891 1539.7272 -40.507446 0.009811551
-813.02026 1487.7317 -60.693848 0.0045777066
-803.1293 1495.0033 -59.541748 0.004715038
-873.55597 1656.0002 -3.5127563 0.004852369
-886.83527 1711.1857 14.583435 0.004776074
-859.42816 1687.4886 4.604553 0.0051270314
-848.49854 1695.9486 6.0889893 0.00764477
-816.2132 1660.6396 -7.8727417 0.013336386
-815.72797 1690.3096 1.1581421 0.013595789
-816.0783 1722.64 11.10553 0.013504234
-802.8496 1726.501 11.043945 0.014709697
-794.3226 1740.68 14.618164 0.015777828
-789.11523 1762.6617 20.92566 0.016449226
-781.35645 1779.4156 25.408142 0.017380025
-773.02814 1795.2717 29.583923 0.01794461
-764.5166 1811.099 33.756653 0.018524453
-754.7379 1824.2529 37.011353 0.01870756
-745.87933 1840.01 41.17755 0.019378958
-733.3489 1846.8739 42.28485 0.019775692
-730.0113 1877.6398 51.640625 0.020325018
-716.1887 1881.7281 51.82013 0.020645456
-709.6059 1905.3627 58.7276 0.021087969
-699.81433 1920.9401 62.877014 0.021316854
-691.109 1940.0648 68.24933 0.021805143
-679.68365 1951.9658 71.164246 0.02153048
-669.04034 1966.5085 74.994446 0.022262912
-656.1417 1974.6732 76.668945 0.022842756
-643.74695 1984.5676 78.95087 0.023208972
-630.6773 1992.5714 80.61023 0.022873273
-616.6932 1997.7633 81.33832 0.023010606
-602.39764 2001.9481 81.74933 0.022491798
-597.64294 2038.9177 93.247925 0.022507057
-583.58154 2044.7996 94.26343 0.02293431
-571.7442 2058.8398 98.04755 0.022598611
-559.00055 2070.061 100.899475 0.023025865
-551.64264 2102.3755 110.84973 0.023025865
-536.6272 2106.1064 111.21863 0.022903793
-522.9488 2115.2751 113.43298 0.022842756
-507.84857 2118.8076 113.7829 0.022751201
-493.36716 2125.0159 115.0517 0.023041124
-479.65305 2134.8403 117.549866 0.022903793
-463.82184 2135.2856 116.94183 0.022629129
-449.94867 2144.926 119.42261 0.02232395
-435.40182 2151.683 120.9646 0.022049287
-420.24136 2155.5452 121.56702 0.021957733
-408.7047 2178.93 128.67651 0.02246128
-393.17548 2181.6746 128.9508 0.022537576
-378.59412 2189.9336 131.07837 0.023056382
-363.14554 2193.4092 131.64307 0.022674907
-346.04468 2186.451 128.77917 0.022369726
-330.04776 2185.9458 128.07892 0.022018768
-313.5392 2181.5645 126.12372 0.022186618
-297.49268 2179.889 125.08966 0.0221561
-280.0348 2166.7886 120.31085 0.022018768
-265.63516 2177.1423 123.2995 0.022217136
-249.81224 2176.0732 122.54352 0.022064546
-236.3403 2196.627 128.93811 0.022247653
-218.72539 2178.3323 122.5556 0.022247653
-202.78288 2175.044 121.1438 0.021759365
-186.89824 2171.644 119.72089 0.02151522
-168.4003 2134.0295 107.06836 0.020630198
-149.76837 2086.7917 91.28461 0.018539712
-130.83946 2024.2335 70.49817 0.01747158
-115.183876 2003.2604 63.413574 0.017486839
-101.15931 2008.7437 65.04736 0.017715724
-86.615234 2003.6909 63.2417 0.018616008
-72.38587 2005.1837 63.60858 0.019287404
-58.112545 2005.6298 63.65387 0.02090486
-43.877808 2007.8778 64.31299 0.022217136
-29.572607 2007.179 64.02661 0.023041124
-15.322581 2012.0826 65.601685 0.024093995
-1.0028859 2013.0885 65.91931 0.025528343
13.286591 2007.346 64.04358 0.026016632
27.624453 2011.0063 65.27692 0.026810102
41.936115 2010.7686 65.25281 0.026123445
56.193172 2008.5337 64.59509 0.024933241
70.18932 1999.5547 61.744385 0.023651484
83.86272 1985.7362 57.325256 0.023468375
98.18137 1988.9104 58.5094 0.022766462
113.77263 2013.8052 66.85394 0.021301595
128.8223 2024.3579 70.5108 0.019485772
143.0948 2021.5321 69.793274 0.01762417
157.77382 2024.2941 70.93573 0.017776761
172.09947 2022.2194 70.50995 0.016861219
186.49075 2020.9935 70.38599 0.015594721
201.71384 2028.18 73.05524 0.015045396
215.04778 2016.3563 69.48566 0.015671015
233.56012 2051.6643 81.47363 0.016296636
257.23062 2125.5007 106.20679 0.017532617
278.4757 2171.7695 121.89349 0.018905928
295.447 2181.1147 125.42938 0.01965362
314.56528 2204.448 133.61743 0.01965362
331.50894 2210.703 136.19385 0.019668879
349.29077 2221.5283 140.31177 0.019241627
366.01703 2224.7124 141.93079 0.018585488
383.6063 2232.4602 145.09082 0.018661784
404.15552 2255.985 153.51581 0.018616008
420.20975 2253.1636 153.2337 0.018448157
436.42545 2251.1653 153.25116 0.01872282
453.00797 2250.919 153.87787 0.01887541
469.9962 2252.4167 155.11316 0.018692302
486.8304 2252.861 156.02667 0.018326085
504.5205 2256.897 158.1673 0.019272145
518.89136 2245.971 155.3421 0.01918059
536.8615 2250.6882 157.76868 0.019790951
552.66876 2246.03 157.08948 0.019409476
565.41925 2229.2754 152.38153 0.018799115
580.8283 2223.5032 151.37506 0.018966964
594.9597 2213.033 148.81482 0.019272145
599.6559 2168.5393 134.82764 0.01918059
612.2797 2154.302 131.02405 0.019226369
632.4147 2166.4941 136.15417 0.019134814
641.90356 2142.0396 128.94409 0.02027924
659.6913 2145.7698 131.27722 0.019439993
676.99854 2147.5432 132.98145 0.019302662
693.20447 2145.5588 133.44293 0.018905928
710.9049 2147.9758 135.42981 0.018829633
725.03577 2139.4294 133.71796 0.018951705
748.38116 2157.7898 141.2052 0.019012742
771.0783 2173.2385 147.75134 0.01904326
783.7112 2159.822 144.46967 0.018966964
807.7115 2177.6025 151.90137 0.018509194
828.65393 2186.2466 156.25055 0.0180972
849.4224 2193.8184 160.27643 0.018005647
868.9522 2197.6646 163.06244 0.01794461
886.1034 2195.161 163.69525 0.017868314
902.54596 2190.7646 163.70544 0.017761502
922.6437 2195.037 166.75269 0.017532617
933.15106 2176.3533 161.86298 0.017761502
946.8575 2165.4958 159.70886 0.017959869
963.9313 2162.3955 160.28387 0.018051423
977.09534 2150.4802 157.80725 0.018127719
994.52014 2148.0115 158.66241 0.017715724
1013.1765 2147.9956 160.41406 0.017929351
1017.1166 2116.8616 151.24084 0.018127719
996.09894 2035.2 124.209045 0.018616008
995.0991 1996.6547 112.3396 0.019089036
1021.4655 2013.5673 120.12317 0.018585488
1039.8682 2014.0913 122.14374 0.018600747
1065.3868 2027.9857 128.9737 0.018112458
1085.3522 2030.6741 131.8609 0.018219272
1105.4138 2033.1853 134.72955 0.018173495
1129.7 2043.043 140.28558 0.017517358
1165.3433 2072.6526 153.02594 0.01718166
1203.825 2106.0159 167.22595 0.016632333
1235.6963 2126.551 176.8858 0.016128786
1269.374 2149.216 187.40839 0.015686275
1282.435 2136.2722 185.03339 0.015197986
1296.8613 2125.7031 183.54504 0.0153505765
1345.2227 2170.313 202.33472 0.014862288
1355.8286 2152.8457 198.41522 0.014801252
1380.5876 2157.903 202.82397 0.014343481
1391.5131 2141.0632 199.17871 0.013794156
1409.0734 2134.5635 199.38647 0.012970169
1423.9666 2123.9531 198.09442 0.012787061
1452.6864 2133.818 204.4903 0.012664989
1467.5665 2122.9148 203.1615 0.0123445485
1481.2717 2110.3462 201.2279 0.011429007
1514.1842 2124.9976 209.60876 0.009582666
-807.16406 1108.3275 -183.17453 0.03918517
-808.474 1127.1738 -177.70297 0.040512703
-805.722 1140.5973 -174.25076 0.041260395
-807.15155 1160.3525 -168.48184 0.041840237
-798.1532 1165.1216 -168.21686 0.04475471
-790.7188 1172.2146 -167.08926 0.047791258
-796.3387 1199.268 -158.70013 0.049393453
-785.5263 1201.5399 -159.3223 0.052857254
-797.8108 1240.0541 -146.84103 0.04946975
-807.5538 1275.5533 -135.50598 0.04646372
-800.2814 1284.3735 -133.79272 0.048630502
-789.95166 1288.2493 -133.83932 0.05119402
-804.0941 1333.109 -119.25595 0.046250094
-813.76404 1371.6295 -106.99362 0.04274052
-803.8088 1377.2302 -106.45038 0.039063096
-808.44714 1408.5294 -96.80884 0.025314717
-862.5405 1529.2506 -55.6911 0.0122072175
-865.2664 1560.3129 -46.287903 0.008361944
-804.4879 1474.6069 -77.8349 0.004303044
-799.18945 1490.2631 -73.76373 0.0045777066
-883.42303 1677.8706 -9.753418 0.004760815
-891.3527 1723.0414 4.4240723 0.004592966
-874.18646 1719.7761 1.7557373 0.004791333
-861.7764 1725.7743 2.3296509 0.0066376748
-833.8786 1699.9044 -8.072388 0.011322195
-831.9065 1727.1667 -0.10925293 0.0113374535
-823.10657 1740.6494 3.107605 0.011474784
-812.5635 1750.6248 5.131653 0.011810483
-818.8186 1797.9551 19.941284 0.012298772
-808.2018 1808.796 22.262024 0.013229572
-794.4317 1812.5741 22.193176 0.014755474
-779.9039 1814.494 21.518005 0.015945679
-782.6876 1857.6917 34.860535 0.016632333
-772.6011 1870.9867 38.058838 0.016723888
-764.14545 1888.661 42.74713 0.01699855
-758.274 1913.4132 49.82672 0.017456321
-747.9789 1927.4902 53.31433 0.01826505
-734.16064 1932.5905 53.80121 0.018921187
-723.6122 1946.5444 57.277527 0.019882506
-716.4673 1970.3169 64.04999 0.020340277
-703.94635 1979.6926 66.017944 0.020614939
-697.5513 2007.0243 73.9884 0.020828566
-685.6289 2018.9991 76.84827 0.021133745
-675.3637 2036.3423 81.50751 0.021438926
-662.8477 2047.2864 84.0553 0.02200351
-651.35455 2061.7964 87.80145 0.022537576
-637.7399 2069.865 89.43237 0.022919051
-624.0463 2077.8462 91.05505 0.022858014
-612.4018 2093.0637 95.08441 0.022964828
-597.9811 2099.0486 96.0885 0.022751201
-586.7968 2116.8853 101.01184 0.022583352
-577.6103 2142.957 108.65167 0.022720683
-565.4472 2158.857 112.961914 0.022888534
-550.5231 2164.5283 113.93756 0.022903793
-539.4053 2185.8362 120.05151 0.02293431
-520.5259 2175.571 115.8609 0.022919051
-506.30896 2184.6562 118.020996 0.022552835
-493.02707 2198.3022 121.68884 0.022217136
-475.96884 2195.1047 119.88904 0.02230869
-459.3701 2193.6462 118.684326 0.02217136
-444.31647 2199.5405 119.897156 0.022095064
-431.01175 2214.6892 124.138 0.021927215
-415.94894 2221.3323 125.637085 0.021789884
-399.642 2221.311 124.99872 0.021622034
-384.80585 2229.6257 127.086426 0.021881437
-369.10168 2233.1445 127.64386 0.021881437
-348.79034 2207.3833 118.75781 0.021576257
-332.38773 2205.0054 117.465454 0.02183566
-318.99313 2223.256 122.86041 0.021576257
-304.08115 2231.9912 125.20233 0.021972992
-286.1572 2217.9558 120.22302 0.02217136
-271.30676 2227.423 122.849 0.021652551
-254.29115 2218.8147 119.67407 0.021728847
-239.02759 2225.2346 121.365295 0.021972992
-222.83746 2223.024 120.30194 0.02198825
-209.23293 2248.2012 128.07306 0.022110322
-191.31738 2226.8037 120.88782 0.021408407
-172.2292 2186.2832 107.58661 0.020248722
-151.01984 2107.616 82.06372 0.017669948
-132.51184 2053.4775 64.45856 0.016754406
-118.079544 2057.1858 65.45953 0.01718166
-103.12713 2051.2854 63.397766 0.017349508
-87.89723 2036.7183 58.577698 0.018249791
-73.1164 2028.7047 55.88446 0.019668879
-58.863 2034.8662 57.761475 0.021576257
-44.29965 2030.4589 56.269775 0.023178454
-29.704144 2019.287 52.63031 0.024551766
-15.412156 2027.0583 55.088806 0.024933241
-1.005456 2021.4011 53.262024 0.025787747
13.420629 2030.8811 56.311768 0.027389944
27.721212 2021.2188 53.243835 0.02885481
42.063328 2020.0282 52.914734 0.028641185
56.39013 2018.7399 52.575806 0.028686961
70.80026 2020.2086 53.14319 0.027405204
84.835976 2012.0645 50.647583 0.025818266
99.87699 2026.6538 55.469788 0.023651484
114.38301 2027.8236 56.007507 0.021972992
128.97066 2029.8436 56.840576 0.020019837
143.65941 2032.7126 57.96881 0.017883575
158.46863 2036.4287 59.391907 0.01762417
172.29742 2027.7045 56.838806 0.016647592
188.26611 2043.5483 62.20752 0.0153505765
205.12111 2065.906 69.6991 0.014373999
219.19849 2058.771 67.72589 0.014740216
236.17549 2078.0432 74.27881 0.015533685
257.86014 2134.0623 92.70404 0.01713588
279.38647 2182.3242 108.6723 0.018249791
299.70544 2216.2332 120.05304 0.01904326
317.71518 2230.1626 125.02197 0.018692302
334.95667 2237.3567 127.84662 0.01918059
350.84897 2235.0112 127.61566 0.01933318
369.02652 2246.6592 131.9375 0.019211108
389.3071 2269.4355 139.89496 0.01873808
405.42947 2266.7163 139.6283 0.018371863
426.9049 2292.928 148.77118 0.018478675
444.45514 2296.4995 150.60596 0.018295567
463.38376 2306.4822 154.55402 0.018539712
479.19476 2300.454 153.328 0.018463416
496.7425 2302.7073 154.82281 0.01841764
507.748 2275.061 146.60138 0.018341344
522.0073 2263.1677 143.52942 0.01855497
538.3196 2260.4636 143.47937 0.018905928
557.3326 2268.7566 147.05243 0.018860152
571.3779 2256.5627 143.95264 0.01918059
589.3435 2259.9727 145.98798 0.018295567
606.4064 2259.561 146.80103 0.018112458
615.4306 2229.6062 137.93268 0.018127719
631.3028 2225.3306 137.5199 0.018387122
647.1478 2220.9453 137.0971 0.018020906
661.3362 2210.9666 134.854 0.018463416
685.1471 2232.823 143.15503 0.01857023
704.184 2238.0764 146.01196 0.018600747
717.22504 2224.1045 142.53125 0.018493935
732.1877 2216.4053 141.15063 0.018066682
750.4212 2218.553 143.06891 0.018356603
771.20593 2227.773 147.37799 0.018448157
791.8461 2235.914 151.37006 0.018600747
807.8012 2230.4146 150.84412 0.01841764
827.014 2233.7573 153.30658 0.018509194
847.3256 2239.6228 156.65363 0.018799115
866.7402 2242.644 159.08612 0.018127719
883.1102 2237.5107 158.81079 0.017761502
904.0642 2243.7778 162.41138 0.017914092
930.20746 2262.2332 170.1773 0.017654689
938.3077 2236.3867 162.99365 0.017914092
951.6923 2223.7156 160.28406 0.017746242
965.7079 2212.7202 158.16321 0.017288473
973.06067 2186.7954 150.97235 0.017669948
978.52954 2157.3955 142.5918 0.017929351
996.37726 2155.7966 143.72632 0.01841764
1009.40326 2143.6758 141.28314 0.018478675
1030.5226 2148.7239 144.76678 0.018493935
1058.0201 2166.4746 152.67883 0.018692302
1063.4171 2138.557 144.86694 0.018616008
1082.2 2137.9832 146.526 0.018600747
1105.8181 2146.6094 151.42096 0.01840238
1117.268 2131.283 148.02509 0.018341344
1131.6891 2121.8142 146.68823 0.018173495
1147.3954 2114.7742 146.22546 0.017975127
1162.6035 2106.7827 145.4563 0.017578393
1190.3185 2121.2278 152.61633 0.017196918
1216.8894 2132.8965 158.86646 0.016723888
1237.9662 2134.3596 161.56769 0.016311895
1266.3738 2148.0117 168.64648 0.015823606
1283.7985 2142.4749 168.96027 0.015594721
1311.1066 2153.169 175.10895 0.01513695
1347.6465 2178.258 186.48743 0.014770733
1364.3572 2170.4905 186.1518 0.014251927
1378.4662 2158.56 184.34424 0.013977264
1413.1967 2178.7146 194.1701 0.014023041
1429.4309 2169.6697 193.48865 0.013229572
1442.9613 2156.5237 191.34064 0.012466621
1448.8835 2132.193 185.12122 0.0128786145
1486.9858 2155.267 196.28076 0.012436103
1493.2445 2131.5547 190.32666 0.011810483
1523.5355 2142.2756 197.08276 0.00999466
-802.69165 1104.1656 -194.59836 0.039536126
-812.9049 1135.5513 -184.72476 0.038956285
-807.9186 1145.8762 -182.47684 0.041107804
-802.2831 1155.399 -180.51544 0.04321355
-806.2071 1179.2083 -173.44955 0.042999923
-798.686 1186.361 -172.34198 0.045807585
-796.3533 1201.4907 -168.3953 0.046768904
-792.80646 1215.0358 -165.0174 0.049637597
-805.0224 1253.682 -152.79883 0.047455557
-815.2026 1290.1177 -141.41629 0.045029372
-812.8598 1307.1622 -136.87708 0.046112765
-798.90985 1305.3812 -138.91898 0.049393453
-803.64984 1334.7565 -130.08612 0.04615854
-812.85266 1372.5273 -118.37369 0.045136187
-804.3418 1380.6108 -116.98227 0.04693675
-792.453 1382.8115 -117.60895 0.04901198
-792.2336 1405.8284 -111.050995 0.036697946
-814.2824 1470.0553 -90.37164 0.015594721
-801.38293 1471.4377 -91.28705 0.0046997787
-800.1628 1494.71 -84.70764 0.0043945983
-888.8671 1691.2484 -19.174194 0.0046997787
-898.0428 1739.1047 -4.428955 0.0043488215
-879.9191 1734.1516 -7.615967 0.004852369
-879.29803 1764.2139 1.0631714 0.0060425727
-844.86896 1725.4734 -13.457581 0.010177768
-836.56604 1739.903 -10.013306 0.011184863
-840.2699 1780.3009 2.1461182 0.010482948
-840.6484 1814.747 12.281738 0.010528726
-832.32587 1830.9678 16.31195 0.010055696
-831.55756 1864.6583 26.166992 0.010406653
-820.45654 1875.6105 28.44696 0.011718929
-811.11804 1890.9006 32.18042 0.013046464
-794.2428 1888.4991 30.068237 0.014404517
-786.8569 1908.9718 35.543762 0.0151522085
-776.73413 1923.22 38.97052 0.015869383
-762.95874 1928.5199 39.464966 0.016311895
-762.1856 1967.6367 51.08545 0.017090105
-755.5121 1992.5177 58.021973 0.017700465
-748.1969 2016.5044 64.66553 0.018371863
-738.63904 2035.0898 69.546936 0.018814374
-728.2234 2051.838 73.83765 0.019272145
-720.1001 2075.7698 80.47711 0.019775692
-705.88666 2082.4785 81.52472 0.020630198
-695.4963 2100.8943 86.391785 0.021255817
-681.0882 2107.4387 87.42474 0.021805143
-666.05457 2112.063 87.8595 0.022293432
-652.10846 2120.2383 89.46484 0.022507057
-638.35535 2129.24 91.357544 0.022476539
-627.70355 2149.166 96.78693 0.02246128
-620.69824 2182.839 106.645935 0.022384984
-606.6699 2192.5688 108.817505 0.022629129
-589.82526 2192.0605 107.726746 0.022415504
-576.6213 2205.2952 111.06506 0.022217136
-564.4295 2223.0854 115.87756 0.022125581
-547.9317 2224.1152 115.35089 0.02200351
-531.6699 2225.9563 115.10974 0.02183566
-510.06476 2204.4138 107.44263 0.021881437
-495.42557 2212.5142 109.25421 0.021728847
-481.90335 2226.1218 112.838806 0.022018768
-471.5153 2255.545 121.465576 0.022415504
-455.11194 2256.8452 121.17505 0.02217136
-439.07687 2259.9048 121.46814 0.021744106
-424.06845 2268.4873 123.5354 0.021438926
-402.92575 2243.137 114.88391 0.021408407
-388.28268 2253.3674 117.5246 0.021316854
-372.1268 2255.0266 117.477356 0.021713588
-357.00217 2263.176 119.50415 0.021179523
-338.95972 2252.345 115.56384 0.02090486
-325.25677 2270.6743 120.84833 0.021469444
-309.52402 2275.6812 121.95227 0.021942474
-293.49518 2278.689 122.44971 0.02185092
-277.32565 2280.6404 122.638855 0.021774624
-260.92816 2280.5842 122.22064 0.022339208
-244.8491 2283.2617 122.68671 0.02217136
-228.65138 2284.8801 122.843994 0.021896696
-211.12772 2272.1318 118.51276 0.021454185
-193.63339 2257.3538 113.57208 0.020553902
-175.76364 2234.8357 106.230225 0.019485772
-153.48793 2145.5464 77.96863 0.017547876
-135.52472 2103.6855 64.62402 0.016479744
-118.86365 2074.0713 55.149414 0.017013809
-104.76376 2087.2239 59.10785 0.017547876
-89.098236 2067.867 52.89789 0.01855497
-74.15348 2060.796 50.561646 0.019668879
-59.0941 2045.9902 45.824524 0.02090486
-44.535797 2044.4363 45.261475 0.02183566
-30.044086 2045.6453 45.585144 0.023468375
-15.566351 2050.5723 47.09485 0.026398107
-1.0150712 2043.949 45.008118 0.028519113
13.398433 2030.5465 40.819458 0.03106737
27.791779 2029.4515 40.506836 0.030304417
42.20981 2030.1666 40.782288 0.03010605
56.69219 2032.6907 41.645996 0.029541466
71.013596 2029.3931 40.70691 0.028625926
85.61021 2033.626 42.14868 0.027832456
100.03736 2032.9917 42.086914 0.025787747
114.61981 2035.1172 42.91162 0.023971923
130.07697 2050.4766 47.90857 0.021744106
146.02304 2069.5305 54.089233 0.01873808
161.14348 2074.1914 55.77881 0.017502097
175.13594 2064.4807 52.979675 0.016311895
190.90907 2075.5896 56.739136 0.015030136
206.66081 2084.6826 59.89044 0.013962005
220.94797 2078.4736 58.256287 0.014328222
236.65427 2085.4492 60.789856 0.0149691
262.80063 2178.552 90.45331 0.016418708
289.9101 2268.553 119.19702 0.017532617
307.64438 2278.8147 122.875 0.018616008
325.67194 2289.888 126.83838 0.019119555
342.6099 2292.3267 128.10754 0.019485772
361.06766 2304.077 132.34344 0.01918059
378.9415 2310.9734 135.07721 0.018921187
397.4119 2320.5603 138.69122 0.019150073
413.86948 2317.7852 138.42426 0.018829633
430.13568 2313.9583 137.84949 0.01873808
446.7298 2311.8962 137.85901 0.018463416
467.23605 2329.384 144.09827 0.01840238
483.56906 2325.194 143.48969 0.018341344
503.86362 2339.5688 148.80914 0.018326085
521.9101 2342.5886 150.5517 0.018326085
534.91547 2323.1316 145.16266 0.01826505
548.3327 2306.399 140.65723 0.018326085
566.29004 2309.0818 142.36908 0.017837796
570.82324 2257.9014 126.88849 0.018493935
590.9264 2269.6553 131.54504 0.018646525
607.05005 2265.5496 131.15588 0.018829633
629.4521 2284.3672 138.15009 0.018280309
644.392 2275.3972 136.25897 0.018371863
661.3608 2273.6753 136.72247 0.01841764
674.2652 2258.091 132.74658 0.01855497
694.49493 2267.1208 136.7312 0.018661784
713.18146 2270.5083 138.93121 0.018463416
726.42395 2256.4548 135.51886 0.01841764
739.8043 2243.2378 132.3949 0.018387122
764.88904 2265.285 140.7417 0.018127719
786.91266 2277.1504 145.83167 0.018387122
802.8124 2270.785 145.026 0.018051423
815.7573 2256.214 141.56732 0.018066682
838.42334 2268.4978 146.90717 0.018204013
856.27124 2267.151 147.8294 0.018295567
873.1198 2262.9897 147.86005 0.018432898
891.35016 2262.2678 149.05084 0.01841764
911.74695 2266.7317 151.98425 0.017990386
932.25616 2271.024 154.90173 0.017990386
960.59045 2293.6853 163.9383 0.018112458
972.8592 2277.3252 160.10504 0.018005647
990.6462 2274.075 160.64124 0.017578393
998.01654 2247.0586 153.29675 0.017227435
1000.74243 2210.4536 142.75037 0.017593652
1016.5521 2203.495 142.1015 0.018539712
1015.72626 2160.8767 129.52539 0.018677043
